# .PCD v.7 - Point Cloud Data file format
VERSION .7
FIELDS x y z normal_x normal_y normal_z
SIZE 4 4 4 4 4 4
TYPE F F F F F F
COUNT 1 1 1 1 1 1
WIDTH 1063
HEIGHT 1
VIEWPOINT 0 0 0 1 0 0 0
POINTS 1063
DATA ascii
-2.49115 9.736453 3.300001 0 -1.192093E-07 1
-1.66365 6.638953 3.300001 0 -1.192093E-07 1
-1.66365 7.155203 3.300002 0 -1.192093E-07 1
-2.49115 8.187703 3.300001 0 -1.192093E-07 1
-2.0774 7.671453 3.300001 0 -1.192093E-07 1
-2.49115 7.671453 3.300001 0 -1.192093E-07 1
-1.66365 7.671453 3.300001 0 -1.192093E-07 1
-1.66365 8.187703 3.300001 0 -1.192093E-07 1
-2.49115 9.220203 3.300001 0 -1.192093E-07 1
-2.0774 8.703954 3.300001 0 -1.192093E-07 1
-2.49115 8.703954 3.300001 0 -1.192093E-07 1
-4.14615 6.122704 3.300002 0 -0.6242341 0.7812374
-4.14615 6.122704 2.887501 0 -1 -1.192093E-07
-4.5599 6.122704 2.887501 -0.7803152 -0.6253865 -5.960464E-08
-3.31865 6.122704 2.887501 0 -1 -1.192093E-07
-3.7324 6.122704 2.887501 0 -1 -1.192093E-07
-3.31865 6.122704 3.300002 0 -0.6242341 0.7812374
-4.5599 6.122704 2.062501 -0.7803152 -0.6253865 -5.960464E-08
-4.14615 6.122704 2.475001 0 -1 -1.192093E-07
-4.14615 6.122704 2.062501 0 -1 -1.192093E-07
-2.0774 6.122704 2.887501 0 -1 -1.192093E-07
-1.66365 6.122704 3.300002 0 -0.6242342 0.7812374
-2.9049 6.122704 2.062501 0 -1 -1.192093E-07
-2.49115 6.122704 2.475001 0 -1 -1.192093E-07
-2.49115 6.122704 3.300002 0 -0.6242341 0.7812374
-2.49115 6.122704 2.887501 0 -1 -1.192093E-07
-2.9049 6.122704 2.887501 0 -1 -1.192093E-07
-4.5599 6.122704 0.4125009 -0.7803152 -0.6253865 -5.960464E-08
-4.14615 6.122704 0.8250012 0 -1 -1.192093E-07
-4.14615 6.122704 1.650001 0 -1 -1.192093E-07
-4.14615 6.122704 1.237501 0 -1 -1.192093E-07
-4.5599 6.122704 1.237501 -0.7803152 -0.6253865 -5.960464E-08
-3.7324 6.122704 1.237501 0 -1 -1.192093E-07
-3.31865 6.122704 1.650001 0 -1 -1.192093E-07
-3.31865 6.122704 2.475001 0 -1 -1.192093E-07
-3.31865 6.122704 2.062501 0 -1 -1.192093E-07
-3.7324 6.122704 2.062501 0 -1 -1.192093E-07
-4.5599 6.638953 3.300001 -0.7060363 -5.960464E-08 0.7081756
-4.14615 6.638953 3.300001 0 -1.192093E-07 1
-4.14615 7.671453 3.300001 0 -1.192093E-07 1
-4.14615 7.155203 3.300002 0 -1.192093E-07 1
-4.5599 7.671453 3.300001 -0.7060362 -5.960464E-08 0.7081757
-3.7324 6.638953 3.300001 0 -1.192093E-07 1
-3.31865 6.638953 3.300001 0 -1.192093E-07 1
-4.14615 9.220203 3.300001 0 -1.192093E-07 1
-4.5599 9.736453 3.300001 -0.7060362 -5.960464E-08 0.7081757
-3.31865 8.187703 3.300001 0 -1.192093E-07 1
-3.7324 8.703954 3.300001 0 -1.192093E-07 1
-4.5599 8.703954 3.300001 -0.7060362 -5.960464E-08 0.7081757
-4.14615 8.703954 3.300001 0 -1.192093E-07 1
-4.14615 8.187703 3.300001 0 -1.192093E-07 1
-2.0774 6.638953 3.300001 0 -1.192093E-07 1
-2.9049 6.638953 3.300001 0 -1.192093E-07 1
-2.49115 6.638953 3.300001 0 -1.192093E-07 1
-2.49115 7.155203 3.300002 0 -1.192093E-07 1
-2.9049 7.671453 3.300001 0 -1.192093E-07 1
-3.7324 7.671453 3.300001 0 -1.192093E-07 1
-3.31865 7.671453 3.300001 0 -1.192093E-07 1
-3.31865 7.155203 3.300002 0 -1.192093E-07 1
-4.5599 9.736453 2.887501 -1 0 0
-4.5599 8.703954 2.887501 -1 0 0
-4.5599 9.220203 2.887502 -1 0 0
-4.5599 9.736452 2.475001 -1 0 0
-4.5599 9.736453 2.062501 -1 0 0
-4.5599 6.638953 2.887501 -1 0 0
-4.5599 7.155203 2.887501 -1 0 0
-4.5599 8.187703 2.062501 -1 0 0
-4.5599 7.671453 2.475001 -1 0 0
-4.5599 7.671453 2.062501 -1 0 0
-4.5599 7.671453 2.887502 -1 0 0
-4.5599 8.187703 2.887501 -1 0 0
-4.5599 9.736453 0.8250008 -1 0 0
-4.5599 9.736453 0.4125013 -1 0 0
-4.5599 9.736452 1.650002 -1 0 0
-4.5599 9.736453 1.237501 -1 0 0
-4.5599 8.703954 1.237501 -1 0 0
-4.5599 9.220203 1.237501 -1 0 0
-4.5599 8.703954 1.650002 -1 0 0
-4.5599 8.703953 2.475001 -1 0 0
-4.5599 8.703954 2.062501 -1 0 0
-4.5599 9.220203 2.062501 -1 0 0
-4.5599 6.638953 2.475001 -1 0 0
-4.5599 6.638953 1.650002 -1 0 0
-4.5599 6.638953 2.062501 -1 0 0
-4.5599 7.155203 2.062501 -1 0 0
-4.5599 7.671453 1.650002 -1 0 0
-4.5599 6.638953 0.4125009 -1 0 0
-4.5599 7.671453 0.4125013 -1 0 0
-4.5599 7.155203 0.4125009 -1 0 0
-4.5599 6.638953 0.8250012 -1 0 0
-4.5599 6.638953 1.237501 -1 0 0
-4.5599 9.220203 0.4125013 -1 0 0
-4.5599 8.187703 1.237501 -1 0 0
-4.5599 8.703954 0.8250008 -1 0 0
-4.5599 8.703954 0.4125013 -1 0 0
-4.5599 8.187703 0.4125013 -1 0 0
-4.5599 7.155203 1.237501 -1 0 0
-4.5599 7.671453 0.8250008 -1 0 0
-4.5599 7.671453 1.237501 -1 0 0
-5.07365 -5.097298 3.3 0 -0.966235 0.2576626
-5.07365 -5.097298 2.8875 0 -1 -1.192093E-07
-5.7299 -5.097298 2.8875 -0.7413844 -0.6710807 -5.960464E-08
-3.76115 -5.097298 2.8875 0 -1 -1.192093E-07
-4.4174 -5.097298 2.8875 0 -1 -1.192093E-07
-3.76115 -5.097298 3.3 0 -0.966235 0.2576626
-5.7299 -5.097298 2.0625 -0.7413844 -0.6710807 -5.960464E-08
-5.07365 -5.097297 2.475 0 -1 -1.192093E-07
-5.07365 -5.097298 2.0625 0 -1 -1.192093E-07
-1.13615 -5.097298 2.8875 0 -1 -1.192093E-07
-1.7924 -5.097298 2.8875 0 -1 -1.192093E-07
-1.13615 -5.097298 3.3 0 -0.966235 0.2576626
-3.1049 -5.097298 2.0625 0 -1 -1.192093E-07
-2.44865 -5.097297 2.475 0 -1 -5.960464E-08
-2.44865 -5.097298 2.0625 0 -1 -5.960464E-08
-2.44865 -5.097298 3.3 0 -0.966235 0.2576625
-2.44865 -5.097298 2.8875 0 -1 -5.960464E-08
-3.1049 -5.097298 2.8875 0 -1 -1.192093E-07
-5.7299 -5.097297 0.4124994 -0.7413844 -0.6710807 -5.960464E-08
-5.07365 -5.097298 0.8249998 0 -1 -1.192093E-07
-5.07365 -5.097297 0.4124994 0 -1 -1.192093E-07
-5.07365 -5.097297 1.65 0 -1 -1.192093E-07
-5.07365 -5.097298 1.2375 0 -1 -1.192093E-07
-5.7299 -5.097298 1.2375 -0.7413844 -0.6710807 -5.960464E-08
-3.76115 -5.097298 1.2375 0 -1 -1.192093E-07
-4.4174 -5.097298 1.2375 0 -1 -1.192093E-07
-3.76115 -5.097297 1.65 0 -1 -1.192093E-07
-3.76115 -5.097297 2.475 0 -1 -1.192093E-07
-3.76115 -5.097298 2.0625 0 -1 -1.192093E-07
-4.4174 -5.097298 2.0625 0 -1 -1.192093E-07
-0.4799002 -5.097298 2.8875 0.1653128 -0.9862412 -1.192093E-07
-1.13615 -5.097297 2.475 0 -1 -1.192093E-07
-1.13615 -5.097297 1.65 0 -1 -1.192093E-07
-1.13615 -5.097298 2.0625 0 -1 -1.192093E-07
-0.4799002 -5.097298 2.0625 0.1653128 -0.9862412 -1.192093E-07
-1.7924 -5.097298 2.0625 0 -1 -1.192093E-07
-2.44865 -5.097297 1.65 0 -1 -5.960464E-08
-1.13615 -5.097297 -4.768372E-07 0 -0.9662349 -0.2576628
-1.13615 -5.097297 0.4124994 0 -1 -1.192093E-07
-0.4799002 -5.097297 0.4124994 0.1653128 -0.9862412 -1.192093E-07
-2.44865 -5.097297 0.4124994 0 -1 -5.960464E-08
-1.7924 -5.097297 0.4124994 0 -1 -1.192093E-07
-2.44865 -5.097297 -4.768372E-07 0 -0.9662349 -0.2576628
-0.4799002 -5.097298 1.2375 0.1653128 -0.9862412 -1.192093E-07
-1.13615 -5.097298 0.8249998 0 -1 -1.192093E-07
-1.13615 -5.097298 1.2375 0 -1 -1.192093E-07
-4.4174 -5.097297 0.4124994 0 -1 -1.192093E-07
-5.07365 -5.097297 -4.768372E-07 0 -0.9662349 -0.2576628
-3.1049 -5.097298 1.2375 0 -1 -1.192093E-07
-3.76115 -5.097298 0.8249998 0 -1 -1.192093E-07
-3.76115 -5.097297 -4.768372E-07 0 -0.9662349 -0.2576628
-3.76115 -5.097297 0.4124994 0 -1 -1.192093E-07
-3.1049 -5.097297 0.4124994 0 -1 -1.192093E-07
-1.7924 -5.097298 1.2375 0 -1 -1.192093E-07
-2.44865 -5.097298 0.8249998 0 -1 -5.960464E-08
-2.44865 -5.097298 1.2375 0 -1 -5.960464E-08
-0.4799002 -4.987298 3.3 0.9878115 -1.490116E-08 0.1556551
-0.4799002 -4.987298 2.8875 1 0 0
-0.4799002 -4.767298 2.8875 1 0 0
-0.4799002 -4.877297 2.8875 1 0 0
-0.4799002 -4.767298 3.3 0.9878115 -1.490116E-08 0.1556551
-0.4799002 -4.987298 2.475 1 0 0
-0.4799002 -4.987298 2.0625 1 0 0
-0.4799002 -4.327297 2.8875 1 0 0
-0.4799002 -4.437298 2.8875 1 0 0
-0.4799002 -4.327297 3.3 0.9878115 -1.490116E-08 0.1556551
-0.4799002 -4.657298 2.0625 1 0 0
-0.4799002 -4.547298 2.475 1 0 0
-0.4799002 -4.547297 2.0625 1 0 0
-0.4799002 -4.547297 3.3 0.9878115 -1.490116E-08 0.1556551
-0.4799002 -4.547297 2.8875 1 0 0
-0.4799002 -4.657298 2.8875 1 0 0
-0.4799002 -4.987298 0.8249998 1 0 0
-0.4799002 -4.987298 0.4124994 1 0 0
-0.4799002 -4.987298 1.65 1 0 0
-0.4799002 -4.987298 1.2375 1 0 0
-0.4799002 -4.767298 1.2375 1 0 0
-0.4799002 -4.877297 1.2375 1 0 0
-0.4799002 -4.767297 1.65 1 0 0
-0.4799002 -4.767297 2.475 1 0 0
-0.4799002 -4.767298 2.0625 1 0 0
-0.4799002 -4.877297 2.0625 1 0 0
-0.4799002 -4.217298 2.8875 0.8609267 0.5087292 5.960464E-08
-0.4799002 -4.327298 2.475 1 0 0
-0.4799002 -4.327297 1.65 1 0 0
-0.4799002 -4.327297 2.0625 1 0 0
-0.4799002 -4.217298 2.0625 0.8609267 0.5087292 5.960464E-08
-0.4799002 -4.437298 2.0625 1 0 0
-0.4799002 -4.547297 1.65 1 0 0
-0.4799002 -4.327297 -4.768372E-07 0.9878115 1.490116E-08 -0.1556551
-0.4799002 -4.327297 0.4124997 1 0 0
-0.4799002 -4.217298 0.4124997 0.8609267 0.5087292 5.960464E-08
-0.4799002 -4.547297 0.4124994 1 0 0
-0.4799002 -4.437297 0.4124994 1 0 0
-0.4799002 -4.547297 -4.768372E-07 0.9878115 1.490116E-08 -0.1556551
-0.4799002 -4.217298 1.2375 0.8609267 0.5087292 5.960464E-08
-0.4799002 -4.327298 0.8249996 1 0 0
-0.4799002 -4.327297 1.2375 1 0 0
-0.4799002 -4.877297 0.4124994 1 0 0
-0.4799002 -4.987298 -4.768372E-07 0.9878115 1.490116E-08 -0.1556551
-0.4799002 -4.657298 1.2375 1 0 0
-0.4799002 -4.767298 0.8249996 1 0 0
-0.4799002 -4.767297 -4.768372E-07 0.9878115 1.490116E-08 -0.1556551
-0.4799002 -4.767297 0.4124994 1 0 0
-0.4799002 -4.657298 0.4124994 1 0 0
-0.4799002 -4.437298 1.2375 1 0 0
-0.4799002 -4.547298 0.8249996 1 0 0
-0.4799002 -4.547297 1.2375 1 0 0
-0.5449001 -4.217298 3.3 0 0.9662349 0.2576627
-0.5449001 -4.217298 2.8875 0 1 1.192093E-07
-0.6749001 -4.217298 2.8875 0 1 5.960464E-08
-0.6099001 -4.217298 2.8875 0 1 5.960464E-08
-0.6749001 -4.217298 3.3 0 0.9662349 0.2576628
-0.5449001 -4.217298 2.475 0 1 1.192093E-07
-0.5449001 -4.217298 2.0625 0 1 1.192093E-07
-0.9349001 -4.217298 2.8875 0 1 5.960464E-08
-0.8699001 -4.217298 2.8875 0 1 5.960464E-08
-0.9349001 -4.217298 3.3 0 0.9662349 0.2576628
-0.7399001 -4.217298 2.0625 0 1 5.960464E-08
-0.8049001 -4.217298 2.475 0 1 5.960464E-08
-0.8049001 -4.217298 2.0625 0 1 5.960464E-08
-0.8049001 -4.217298 3.3 0 0.9662349 0.2576628
-0.8049001 -4.217298 2.8875 0 1 5.960464E-08
-0.7399001 -4.217298 2.8875 0 1 5.960464E-08
-0.5449001 -4.217298 0.8249996 0 1 1.192093E-07
-0.5449001 -4.217298 0.4124997 0 1 1.192093E-07
-0.5449001 -4.217298 1.65 0 1 1.192093E-07
-0.5449001 -4.217298 1.2375 0 1 1.192093E-07
-0.6749001 -4.217298 1.2375 0 1 5.960464E-08
-0.6099001 -4.217298 1.2375 0 1 5.960464E-08
-0.6749001 -4.217298 1.65 0 1 5.960464E-08
-0.6749001 -4.217298 2.475 0 1 5.960464E-08
-0.6749001 -4.217298 2.0625 0 1 5.960464E-08
-0.6099001 -4.217298 2.0625 0 1 5.960464E-08
-0.9349001 -4.327297 3.3 0 -1.192093E-07 1
-1.52615 -4.437298 3.3 0 -1.192093E-07 1
-1.59115 -4.327297 3.3 0 -1.192093E-07 1
-1.39615 -4.657298 3.3 0 -1.192093E-07 1
-1.46115 -4.547297 3.3 0 -1.192093E-07 1
-0.8049001 -4.547297 3.3 0 -1.192093E-07 1
-2.77365 -4.547297 3.3 0 -1.192093E-07 1
-2.1174 -4.547297 3.3 0 -1.192093E-07 1
-2.70865 -4.657298 3.3 0 -1.192093E-07 1
-1.20115 -4.987298 3.3 0 -1.192093E-07 1
-0.5449001 -4.987298 3.3 0 -1.192093E-07 1
-2.51365 -4.987298 3.3 0 -1.192093E-07 1
-1.8574 -4.987298 3.3 0 -1.192093E-07 1
-0.6749001 -4.767298 3.3 0 -1.192093E-07 1
-1.26615 -4.877297 3.3 0 -1.192093E-07 1
-1.33115 -4.767298 3.3 0 -1.192093E-07 1
-5.13865 -4.987298 3.3 0 -1.192093E-07 1
-4.4824 -4.987298 3.3 0 -1.192093E-07 1
-3.2999 -4.767298 3.3 0 -1.192093E-07 1
-3.89115 -4.877297 3.3 0 -1.192093E-07 1
-3.95615 -4.767298 3.3 0 -1.192093E-07 1
-3.82615 -4.987298 3.3 0 -1.192093E-07 1
-3.1699 -4.987298 3.3 0 -1.192093E-07 1
-1.9874 -4.767298 3.3 0 -1.192093E-07 1
-2.57865 -4.877297 3.3 0 -1.192093E-07 1
-2.64365 -4.767298 3.3 0 -1.192093E-07 1
-0.8699001 -4.327297 3.3 0 -1.192093E-07 1
-0.7399001 -4.327297 3.3 0 -1.192093E-07 1
-0.8049001 -4.327297 3.3 0 -1.192093E-07 1
-0.8049001 -4.437298 3.3 0 -1.192093E-07 1
-0.7399001 -4.547297 3.3 0 -1.192093E-07 1
-0.5449001 -4.327297 3.3 0 -1.192093E-07 1
-0.5449001 -4.547297 3.3 0 -1.192093E-07 1
-0.5449001 -4.437298 3.3 0 -1.192093E-07 1
-0.6099001 -4.327297 3.3 0 -1.192093E-07 1
-0.6749001 -4.327297 3.3 0 -1.192093E-07 1
-0.5449001 -4.877297 3.3 0 -1.192093E-07 1
-0.6749001 -4.657298 3.3 0 -1.192093E-07 1
-0.6099001 -4.767298 3.3 0 -1.192093E-07 1
-0.5449001 -4.767298 3.3 0 -1.192093E-07 1
-0.5449001 -4.657298 3.3 0 -1.192093E-07 1
-0.6749001 -4.437298 3.3 0 -1.192093E-07 1
-0.6099001 -4.547297 3.3 0 -1.192093E-07 1
-0.6749001 -4.547297 3.3 0 -1.192093E-07 1
-0.9999001 -4.217298 2.8875 0.879292 0.4762832 5.960464E-08
-0.9349001 -4.217298 2.475 0 1 5.960464E-08
-0.9349001 -4.217298 1.65 0 1 5.960464E-08
-0.9349001 -4.217298 2.0625 0 1 5.960464E-08
-0.9999001 -4.217298 2.0625 0.879292 0.4762832 5.960464E-08
-0.8699001 -4.217298 2.0625 0 1 5.960464E-08
-0.8049001 -4.217298 1.65 0 1 5.960464E-08
-0.9349001 -4.217298 -4.768372E-07 0 0.966235 -0.2576625
-0.9349001 -4.217298 0.4124997 0 1 5.960464E-08
-0.9999001 -4.217298 0.4124997 0.879292 0.4762832 5.960464E-08
-0.8049001 -4.217298 0.4124997 0 1 5.960464E-08
-0.8699001 -4.217298 0.4124997 0 1 5.960464E-08
-0.8049001 -4.217298 -4.768372E-07 0 0.966235 -0.2576625
-0.9999001 -4.217298 1.2375 0.879292 0.4762832 5.960464E-08
-0.9349001 -4.217298 0.8249996 0 1 5.960464E-08
-0.9349001 -4.217298 1.2375 0 1 5.960464E-08
-0.6099001 -4.217298 0.4124997 0 1 5.960464E-08
-0.5449001 -4.217298 -4.768372E-07 0 0.966235 -0.2576624
-0.7399001 -4.217298 1.2375 0 1 5.960464E-08
-0.6749001 -4.217298 0.8249996 0 1 5.960464E-08
-0.6749001 -4.217298 -4.768372E-07 0 0.966235 -0.2576625
-0.6749001 -4.217298 0.4124997 0 1 5.960464E-08
-0.7399001 -4.217298 0.4124997 0 1 5.960464E-08
-0.8699001 -4.217298 1.2375 0 1 5.960464E-08
-0.8049001 -4.217298 0.8249996 0 1 5.960464E-08
-0.8049001 -4.217298 1.2375 0 1 5.960464E-08
-0.5449001 -4.327297 -4.768372E-07 0 1.192093E-07 -1
-0.6749001 -4.327297 -4.768372E-07 0 1.192093E-07 -1
-0.6099001 -4.327297 -4.768372E-07 0 1.192093E-07 -1
-0.5449001 -4.437297 -4.768372E-07 0 1.192093E-07 -1
-0.5449001 -4.547297 -4.768372E-07 0 1.192093E-07 -1
-0.9349001 -4.327297 -4.768372E-07 0 1.192093E-07 -1
-0.8699001 -4.327297 -4.768372E-07 0 1.192093E-07 -1
-0.7399001 -4.547297 -4.768372E-07 0 1.192093E-07 -1
-0.8049001 -4.437297 -4.768372E-07 0 1.192093E-07 -1
-0.8049001 -4.547297 -4.768372E-07 0 1.192093E-07 -1
-0.8049001 -4.327297 -4.768372E-07 0 1.192093E-07 -1
-0.7399001 -4.327297 -4.768372E-07 0 1.192093E-07 -1
-0.5449001 -4.877297 -4.768372E-07 0 1.192093E-07 -1
-0.5449001 -4.987298 -4.768372E-07 0 1.192093E-07 -1
-0.5449001 -4.657298 -4.768372E-07 0 1.192093E-07 -1
-0.5449001 -4.767297 -4.768372E-07 0 1.192093E-07 -1
-0.6749001 -4.767297 -4.768372E-07 0 1.192093E-07 -1
-0.6099001 -4.767297 -4.768372E-07 0 1.192093E-07 -1
-0.6749001 -4.657298 -4.768372E-07 0 1.192093E-07 -1
-0.6749001 -4.437297 -4.768372E-07 0 1.192093E-07 -1
-0.6749001 -4.547297 -4.768372E-07 0 1.192093E-07 -1
-0.6099001 -4.547297 -4.768372E-07 0 1.192093E-07 -1
-1.59115 -4.327297 -4.768372E-07 0 1.192093E-07 -1
-1.52615 -4.437297 -4.768372E-07 0 1.192093E-07 -1
-2.70865 -4.657298 -4.768372E-07 0 1.192093E-07 -1
-2.1174 -4.547297 -4.768372E-07 0 1.192093E-07 -1
-2.77365 -4.547297 -4.768372E-07 0 1.192093E-07 -1
-1.46115 -4.547297 -4.768372E-07 0 1.192093E-07 -1
-1.39615 -4.657298 -4.768372E-07 0 1.192093E-07 -1
-4.4824 -4.987298 -4.768372E-07 0 1.192093E-07 -1
-5.13865 -4.987298 -4.768372E-07 0 1.192093E-07 -1
-3.1699 -4.987298 -4.768372E-07 0 1.192093E-07 -1
-3.82615 -4.987298 -4.768372E-07 0 1.192093E-07 -1
-3.95615 -4.767297 -4.768372E-07 0 1.192093E-07 -1
-3.89115 -4.877297 -4.768372E-07 0 1.192093E-07 -1
-3.2999 -4.767297 -4.768372E-07 0 1.192093E-07 -1
-1.20115 -4.987298 -4.768372E-07 0 1.192093E-07 -1
-1.33115 -4.767297 -4.768372E-07 0 1.192093E-07 -1
-1.26615 -4.877297 -4.768372E-07 0 1.192093E-07 -1
-1.8574 -4.987298 -4.768372E-07 0 1.192093E-07 -1
-2.51365 -4.987298 -4.768372E-07 0 1.192093E-07 -1
-2.64365 -4.767297 -4.768372E-07 0 1.192093E-07 -1
-2.57865 -4.877297 -4.768372E-07 0 1.192093E-07 -1
-1.9874 -4.767297 -4.768372E-07 0 1.192093E-07 -1
-0.9999001 -4.097298 3.3 0.5721816 -1.192093E-07 0.820127
-0.9999001 -4.097298 2.8875 1 0 0
-0.9999001 -3.857298 2.8875 1 0 0
-0.9999001 -3.977298 2.8875 1 0 0
-0.9999001 -3.857298 3.3 0.5721816 -1.192093E-07 0.820127
-0.9999001 -4.097298 2.475 1 0 0
-0.9999001 -4.097298 2.0625 1 0 0
-0.9999001 -3.377298 2.8875 1 0 0
-0.9999001 -3.497298 2.8875 1 0 0
-0.9999001 -3.377298 3.3 0.5721816 -1.192093E-07 0.820127
-0.9999001 -3.737298 2.0625 1 0 0
-0.9999001 -3.617298 2.475 1 0 0
-0.9999001 -3.617298 2.0625 1 0 0
-0.9999001 -3.617298 3.3 0.5721816 -1.192093E-07 0.820127
-0.9999001 -3.617298 2.8875 1 0 0
-0.9999001 -3.737298 2.8875 1 0 0
-0.9999001 -4.097298 0.8249996 1 0 0
-0.9999001 -4.097298 0.4124997 1 0 0
-0.9999001 -4.097298 1.65 1 0 0
-0.9999001 -4.097298 1.2375 1 0 0
-0.9999001 -3.857298 1.2375 1 0 0
-0.9999001 -3.977298 1.237499 1 0 0
-0.9999001 -3.857297 1.65 1 0 0
-0.9999001 -3.857297 2.475 1 0 0
-0.9999001 -3.857298 2.0625 1 0 0
-0.9999001 -3.977298 2.0625 1 0 0
-1.59115 -3.607298 3.3 0 -1.192093E-07 1
-1.59115 -3.487298 3.3 0 -1.192093E-07 1
-1.59115 -3.847298 3.3 0 -1.192093E-07 1
-1.59115 -3.727298 3.3 0 -1.192093E-07 1
-2.77365 -3.947298 3.3 0 -5.960464E-08 1
-2.1824 -3.837298 3.3 0 -1.192093E-07 1
-2.77365 -4.067298 3.3 0 -1.192093E-07 1
-1.59115 -4.207297 3.3 0 -1.192093E-07 1
-2.77365 -4.427298 3.3 0 -1.192093E-07 1
-2.1824 -4.317298 3.3 0 -1.192093E-07 1
-1.59115 -4.087297 3.3 0 -1.192093E-07 1
-1.59115 -3.967298 3.3 0 -1.192093E-07 1
-5.13865 -4.867298 3.3 0 -1.192093E-07 1
-4.5474 -4.757298 3.3 0 -1.192093E-07 1
-3.3649 -4.297297 3.3 0 -1.192093E-07 1
-3.95615 -4.527298 3.3 0 -1.192093E-07 1
-3.95615 -4.407298 3.3 0 -1.192093E-07 1
-3.95615 -4.647298 3.3 0 -1.192093E-07 1
-3.3649 -4.537297 3.3 0 -1.192093E-07 1
-2.1824 -4.077297 3.3 0 -1.192093E-07 1
-2.77365 -4.307298 3.3 0 -1.192093E-07 1
-2.77365 -4.187298 3.3 0 -1.192093E-07 1
-0.9999001 -3.257298 2.8875 0.879292 -0.4762832 -5.960464E-08
-0.9999001 -3.377298 2.475 1 0 0
-0.9999001 -3.377297 1.65 1 0 0
-0.9999001 -3.377297 2.0625 1 0 0
-0.9999001 -3.257298 2.0625 0.879292 -0.4762832 -5.960464E-08
-0.9999001 -3.497298 2.0625 1 0 0
-0.9999001 -3.617298 1.65 1 0 0
-0.9999001 -3.377297 -4.768372E-07 0.5721816 1.192093E-07 -0.820127
-0.9999001 -3.377298 0.4124997 1 0 0
-0.9999001 -3.257298 0.4124997 0.879292 -0.4762832 -5.960464E-08
-0.9999001 -3.617298 0.4124997 1 0 0
-0.9999001 -3.497298 0.4124997 1 0 0
-0.9999001 -3.617297 -4.768372E-07 0.5721816 1.192093E-07 -0.820127
-0.9999001 -3.257298 1.2375 0.879292 -0.4762832 -5.960464E-08
-0.9999001 -3.377298 0.8249996 1 0 0
-0.9999001 -3.377298 1.2375 1 0 0
-0.9999001 -3.977298 0.4124997 1 0 0
-0.9999001 -4.097298 -4.768372E-07 0.5721816 1.192093E-07 -0.820127
-0.9999001 -3.737298 1.2375 1 0 0
-0.9999001 -3.857298 0.8249996 1 0 0
-0.9999001 -3.857297 -4.768372E-07 0.5721816 1.192093E-07 -0.820127
-0.9999001 -3.857297 0.4124997 1 0 0
-0.9999001 -3.737298 0.4124997 1 0 0
-0.9999001 -3.497298 1.237499 1 0 0
-0.9999001 -3.617297 0.8249996 1 0 0
-0.9999001 -3.617297 1.237499 1 0 0
-4.5474 -4.757298 -4.768372E-07 0 1.192093E-07 -1
-5.13865 -4.867298 -4.768372E-07 0 1.192093E-07 -1
-3.3649 -4.537297 -4.768372E-07 0 1.192093E-07 -1
-3.95615 -4.647297 -4.768372E-07 0 1.192093E-07 -1
-3.95615 -4.407298 -4.768372E-07 0 1.192093E-07 -1
-3.95615 -4.527297 -4.768372E-07 0 1.192093E-07 -1
-3.3649 -4.297297 -4.768372E-07 0 1.192093E-07 -1
-1.59115 -4.207297 -4.768372E-07 0 1.192093E-07 -1
-1.59115 -3.967298 -4.768372E-07 0 1.192093E-07 -1
-1.59115 -4.087297 -4.768372E-07 0 1.192093E-07 -1
-2.1824 -4.317297 -4.768372E-07 0 1.192093E-07 -1
-2.77365 -4.427298 -4.768372E-07 0 1.192093E-07 -1
-1.59115 -3.487298 -4.768372E-07 0 1.192093E-07 -1
-1.59115 -3.607297 -4.768372E-07 0 1.192093E-07 -1
-2.77365 -4.067297 -4.768372E-07 0 1.192093E-07 -1
-2.1824 -3.837297 -4.768372E-07 0 1.192093E-07 -1
-2.77365 -3.947297 -4.768372E-07 0 1.192093E-07 -1
-1.59115 -3.727298 -4.768372E-07 0 1.192093E-07 -1
-1.59115 -3.847297 -4.768372E-07 0 1.192093E-07 -1
-2.77365 -4.307297 -4.768372E-07 0 1.192093E-07 -1
-2.1824 -4.077297 -4.768372E-07 0 1.192093E-07 -1
-2.77365 -4.187297 -4.768372E-07 0 1.192093E-07 -1
-0.9349001 -3.257298 3.3 0 -0.6401845 0.7682213
-0.9349001 -3.257298 2.8875 0 -1 -5.960464E-08
-0.8049001 -3.257298 2.8875 0 -1 -5.960464E-08
-0.8699001 -3.257298 2.8875 0 -1 -5.960464E-08
-0.8049001 -3.257298 3.3 0 -0.6401845 0.7682213
-0.9349001 -3.257298 2.475 0 -1 -5.960464E-08
-0.9349001 -3.257298 2.0625 0 -1 -5.960464E-08
-0.5449001 -3.257298 2.8875 0 -1 -1.192093E-07
-0.6099001 -3.257298 2.8875 0 -1 -5.960464E-08
-0.5449001 -3.257298 3.3 0 -0.6401846 0.7682211
-0.7399001 -3.257298 2.0625 0 -1 -5.960464E-08
-0.6749001 -3.257298 2.475 0 -1 -5.960464E-08
-0.6749001 -3.257298 2.0625 0 -1 -5.960464E-08
-0.6749001 -3.257298 3.3 0 -0.6401845 0.7682213
-0.6749001 -3.257298 2.8875 0 -1 -5.960464E-08
-0.7399001 -3.257298 2.8875 0 -1 -5.960464E-08
-0.9349001 -3.257298 0.8249996 0 -1 -5.960464E-08
-0.9349001 -3.257298 0.4124997 0 -1 -5.960464E-08
-0.9349001 -3.257298 1.65 0 -1 -5.960464E-08
-0.9349001 -3.257298 1.2375 0 -1 -5.960464E-08
-0.8049001 -3.257298 1.2375 0 -1 -5.960464E-08
-0.8699001 -3.257298 1.2375 0 -1 -5.960464E-08
-0.8049001 -3.257298 1.65 0 -1 -5.960464E-08
-0.8049001 -3.257298 2.475 0 -1 -5.960464E-08
-0.8049001 -3.257298 2.0625 0 -1 -5.960464E-08
-0.8699001 -3.257298 2.0625 0 -1 -5.960464E-08
-0.4799002 -3.257298 2.8875 0.9914884 -0.1301954 -1.490116E-08
-0.5449001 -3.257298 2.475 0 -1 -1.192093E-07
-0.5449001 -3.257298 1.65 0 -1 -1.192093E-07
-0.5449001 -3.257298 2.0625 0 -1 -1.192093E-07
-0.4799002 -3.257298 2.0625 0.9914884 -0.1301954 -1.490116E-08
-0.6099001 -3.257298 2.0625 0 -1 -5.960464E-08
-0.6749001 -3.257298 1.65 0 -1 -5.960464E-08
-0.5449001 -3.257298 -4.768372E-07 0 -0.6401843 -0.7682214
-0.5449001 -3.257298 0.4124997 0 -1 -1.192093E-07
-0.4799002 -3.257298 0.4124997 0.9914884 -0.1301954 -1.490116E-08
-0.6749001 -3.257298 0.4124997 0 -1 -5.960464E-08
-0.6099001 -3.257298 0.4124997 0 -1 -5.960464E-08
-0.6749001 -3.257298 -4.768372E-07 0 -0.6401843 -0.7682214
-0.4799002 -3.257298 1.2375 0.9914884 -0.1301954 -1.490116E-08
-0.5449001 -3.257298 0.8249996 0 -1 -1.192093E-07
-0.5449001 -3.257298 1.2375 0 -1 -1.192093E-07
-0.8699001 -3.257298 0.4124997 0 -1 -5.960464E-08
-0.9349001 -3.257298 -4.768372E-07 0 -0.6401843 -0.7682214
-0.7399001 -3.257298 1.2375 0 -1 -5.960464E-08
-0.8049001 -3.257298 0.8249996 0 -1 -5.960464E-08
-0.8049001 -3.257298 -4.768372E-07 0 -0.6401843 -0.7682214
-0.8049001 -3.257298 0.4124997 0 -1 -5.960464E-08
-0.7399001 -3.257298 0.4124997 0 -1 -5.960464E-08
-0.6099001 -3.257298 1.2375 0 -1 -5.960464E-08
-0.6749001 -3.257298 0.8249996 0 -1 -5.960464E-08
-0.6749001 -3.257298 1.2375 0 -1 -5.960464E-08
-0.4799002 -2.762298 3.3 0.9878115 -1.490116E-08 0.1556551
-0.4799002 -2.762297 2.8875 1 0 0
-0.4799002 -1.772298 2.8875 1 0 0
-0.4799002 -2.267298 2.8875 1 0 0
-0.4799002 -1.772298 3.3 0.9878115 -1.490116E-08 0.1556551
-0.4799002 -2.762297 2.475 1 0 0
-0.4799002 -2.762298 2.0625 1 0 0
-0.4799002 0.2077029 2.8875 1 0 0
-0.4799002 -0.2872972 2.8875 1 0 0
-0.4799002 0.2077026 3.300001 0.9878115 -1.490116E-08 0.1556551
-0.4799002 -1.277297 2.0625 1 0 0
-0.4799002 -0.7822974 2.475 1 0 0
-0.4799002 -0.7822974 2.0625 1 0 0
-0.4799002 -0.7822974 3.3 0.9878115 -1.490116E-08 0.1556551
-0.4799002 -0.7822974 2.8875 1 0 0
-0.4799002 -1.277297 2.8875 1 0 0
-0.4799002 -2.762297 0.8249998 1 0 0
-0.4799002 -2.762297 0.4124999 1 0 0
-0.4799002 -2.762297 1.65 1 0 0
-0.4799002 -2.762297 1.2375 1 0 0
-0.4799002 -1.772297 1.2375 1 0 0
-0.4799002 -2.267298 1.2375 1 0 0
-0.4799002 -1.772298 1.65 1 0 0
-0.4799002 -1.772297 2.475 1 0 0
-0.4799002 -1.772297 2.0625 1 0 0
-0.4799002 -2.267298 2.0625 1 0 0
-0.5449001 -2.762298 3.3 0 -5.960464E-08 1
-0.6749001 -2.762298 3.3 0 -1.192093E-07 1
-0.6099001 -2.762298 3.3 0 -1.192093E-07 1
-0.5449001 -2.267298 3.3 0 -5.960464E-08 1
-0.5449001 -1.772298 3.3 0 -5.960464E-08 1
-0.9349001 -2.762298 3.3 0 -1.192093E-07 1
-0.8699001 -2.762298 3.3 0 -1.192093E-07 1
-0.7399001 -1.772298 3.3 0 -1.192093E-07 1
-0.8049001 -2.267298 3.3 0 -1.192093E-07 1
-0.8049001 -1.772298 3.3 0 -1.192093E-07 1
-0.8049001 -2.762298 3.3 0 -1.192093E-07 1
-0.7399001 -2.762298 3.3 0 -1.192093E-07 1
-0.5449001 -0.2872975 3.3 0 -5.960464E-08 1
-0.5449001 0.2077026 3.300001 0 -1.192093E-07 1
-0.5449001 -1.277298 3.3 0 -5.960464E-08 1
-0.5449001 -0.7822974 3.3 0 -5.960464E-08 1
-0.6749001 -0.7822974 3.3 0 -1.192093E-07 1
-0.6099001 -0.7822974 3.3 0 -1.192093E-07 1
-0.6749001 -1.277298 3.3 0 -1.192093E-07 1
-0.6749001 -2.267298 3.3 0 -1.192093E-07 1
-0.6749001 -1.772298 3.3 0 -1.192093E-07 1
-0.6099001 -1.772298 3.3 0 -1.192093E-07 1
-0.4799002 0.7027028 2.8875 0.985157 0.1716561 1.490116E-08
-0.4799002 0.2077029 2.475 1 0 0
-0.4799002 0.2077028 1.65 1 0 0
-0.4799002 0.2077028 2.0625 1 0 0
-0.4799002 0.7027028 2.0625 0.985157 0.1716561 1.490116E-08
-0.4799002 -0.2872972 2.0625 1 0 0
-0.4799002 -0.7822973 1.65 1 0 0
-0.4799002 0.207703 2.980232E-08 0.9878115 1.490116E-08 -0.1556551
-0.4799002 0.207703 0.4125001 1 0 0
-0.4799002 0.702703 0.4125001 0.985157 0.1716561 1.490116E-08
-0.4799002 -0.7822971 0.4124999 1 0 0
-0.4799002 -0.2872971 0.4125 1 0 0
-0.4799002 -0.7822971 -1.192093E-07 0.9878115 1.490116E-08 -0.1556551
-0.4799002 0.7027029 1.2375 0.985157 0.1716561 1.490116E-08
-0.4799002 0.2077029 0.8250002 1 0 0
-0.4799002 0.2077029 1.2375 1 0 0
-0.4799002 -2.267298 0.4124998 1 0 0
-0.4799002 -2.762297 -2.384186E-07 0.9878115 1.490116E-08 -0.1556551
-0.4799002 -1.277297 1.2375 1 0 0
-0.4799002 -1.772297 0.8249999 1 0 0
-0.4799002 -1.772297 -2.384186E-07 0.9878115 1.490116E-08 -0.1556551
-0.4799002 -1.772297 0.4124998 1 0 0
-0.4799002 -1.277297 0.4124999 1 0 0
-0.4799002 -0.2872971 1.2375 1 0 0
-0.4799002 -0.7822972 0.825 1 0 0
-0.4799002 -0.7822974 1.2375 1 0 0
-0.8699001 -2.762297 -2.384186E-07 0 1.192093E-07 -1
-0.9349001 -2.762297 -2.384186E-07 0 1.192093E-07 -1
-0.7399001 -2.762297 -2.384186E-07 0 1.192093E-07 -1
-0.8049001 -2.762297 -2.384186E-07 0 1.192093E-07 -1
-0.8049001 -1.772297 -2.384186E-07 0 1.192093E-07 -1
-0.8049001 -2.267297 -2.384186E-07 0 1.192093E-07 -1
-0.7399001 -1.772297 -2.384186E-07 0 1.192093E-07 -1
-0.5449001 -2.762297 -2.384186E-07 0 5.960464E-08 -1
-0.5449001 -1.772297 -2.384186E-07 0 5.960464E-08 -1
-0.5449001 -2.267297 -2.384186E-07 0 5.960464E-08 -1
-0.6099001 -2.762297 -2.384186E-07 0 1.192093E-07 -1
-0.6749001 -2.762297 -2.384186E-07 0 1.192093E-07 -1
-0.5449001 0.207703 2.980232E-08 0 1.192093E-07 -1
-0.5449001 -0.287297 -2.980232E-08 0 5.960464E-08 -1
-0.6749001 -1.277297 -1.192093E-07 0 1.192093E-07 -1
-0.6099001 -0.7822971 -1.192093E-07 0 1.192093E-07 -1
-0.6749001 -0.7822971 -1.192093E-07 0 1.192093E-07 -1
-0.5449001 -0.7822971 -1.192093E-07 0 1.192093E-07 -1
-0.5449001 -1.277297 -1.192093E-07 0 5.960464E-08 -1
-0.6749001 -2.267297 -2.384186E-07 0 1.192093E-07 -1
-0.6099001 -1.772297 -2.384186E-07 0 1.192093E-07 -1
-0.6749001 -1.772297 -2.384186E-07 0 1.192093E-07 -1
-0.5661501 0.7027025 3.300001 0 0.6401843 0.7682214
-0.5661501 0.7027028 2.8875 0 1 1.192093E-07
-0.7386501 0.7027028 2.8875 0 1 1.192093E-07
-0.6524001 0.7027028 2.8875 0 1 1.192093E-07
-0.7386501 0.7027025 3.300001 0 0.6401843 0.7682214
-0.5661501 0.7027028 2.475 0 1 1.192093E-07
-0.5661501 0.7027028 2.0625 0 1 1.192093E-07
-1.08365 0.7027028 2.8875 0 1 1.192093E-07
-0.9974001 0.7027028 2.8875 0 1 1.192093E-07
-1.08365 0.7027025 3.300001 0 0.6401843 0.7682214
-0.8249001 0.7027028 2.0625 0 1 1.192093E-07
-0.9111501 0.7027028 2.475 0 1 1.192093E-07
-0.9111501 0.7027028 2.0625 0 1 1.192093E-07
-0.9111501 0.7027025 3.300001 0 0.6401843 0.7682214
-0.9111501 0.7027028 2.8875 0 1 1.192093E-07
-0.8249001 0.7027028 2.8875 0 1 1.192093E-07
-0.5661501 0.7027029 0.8250002 0 1 1.192093E-07
-0.5661501 0.702703 0.4125001 0 1 1.192093E-07
-0.5661501 0.7027028 1.65 0 1 1.192093E-07
-0.5661501 0.7027029 1.2375 0 1 1.192093E-07
-0.7386501 0.7027029 1.2375 0 1 1.192093E-07
-0.6524001 0.7027029 1.2375 0 1 1.192093E-07
-0.7386501 0.7027028 1.65 0 1 1.192093E-07
-0.7386501 0.7027028 2.475 0 1 1.192093E-07
-0.7386501 0.7027028 2.0625 0 1 1.192093E-07
-0.6524001 0.7027028 2.0625 0 1 1.192093E-07
-1.02115 -2.762298 3.3 0 -1.192093E-07 1
-0.9561501 -2.267298 3.3 0 -1.192093E-07 1
-0.9986501 -1.277298 3.3 0 -1.192093E-07 1
-0.9774001 -1.772298 3.3 0 -1.192093E-07 1
-1.06365 -1.772298 3.3 0 -1.192093E-07 1
-0.8911501 -1.772298 3.3 0 -1.192093E-07 1
-0.8261501 -1.277298 3.3 0 -1.192093E-07 1
-1.0624 0.2077026 3.300001 0 -1.192093E-07 1
-1.14865 0.2077026 3.300001 0 -1.192093E-07 1
-0.8899001 0.2077026 3.300001 0 -1.192093E-07 1
-0.9761501 0.2077026 3.300001 0 -1.192093E-07 1
-1.10615 -0.7822974 3.3 0 -1.192093E-07 1
-1.04115 -0.2872975 3.3 0 -1.192093E-07 1
-1.0199 -0.7822974 3.3 0 -1.192093E-07 1
-0.6311501 0.2077026 3.300001 0 -1.192093E-07 1
-0.7611501 -0.7822974 3.3 0 -1.192093E-07 1
-0.6961501 -0.2872975 3.3 0 -1.192093E-07 1
-0.7174001 0.2077026 3.300001 0 -1.192093E-07 1
-0.8036501 0.2077026 3.300001 0 -1.192093E-07 1
-0.9336501 -0.7822974 3.3 0 -1.192093E-07 1
-0.8686501 -0.2872975 3.3 0 -1.192093E-07 1
-0.8474001 -0.7822974 3.3 0 -1.192093E-07 1
-1.1699 0.7027028 2.8875 0 1 1.192093E-07
-1.08365 0.7027028 2.475 0 1 1.192093E-07
-1.08365 0.7027028 1.65 0 1 1.192093E-07
-1.08365 0.7027028 2.0625 0 1 1.192093E-07
-1.1699 0.7027028 2.0625 0 1 1.192093E-07
-0.9974001 0.7027028 2.0625 0 1 1.192093E-07
-0.9111501 0.7027028 1.65 0 1 1.192093E-07
-1.08365 0.7027031 5.960464E-08 0 0.6401845 -0.7682212
-1.08365 0.702703 0.4125001 0 1 1.192093E-07
-1.1699 0.702703 0.4125001 0 1 1.192093E-07
-0.9111501 0.702703 0.4125001 0 1 1.192093E-07
-0.9974001 0.702703 0.4125001 0 1 1.192093E-07
-0.9111501 0.7027031 5.960464E-08 0 0.6401845 -0.7682212
-1.1699 0.7027029 1.2375 0 1 1.192093E-07
-1.08365 0.7027029 0.8250002 0 1 1.192093E-07
-1.08365 0.7027029 1.2375 0 1 1.192093E-07
-0.6524001 0.702703 0.4125001 0 1 1.192093E-07
-0.5661501 0.7027031 5.960464E-08 0 0.6401845 -0.7682212
-0.8249001 0.7027029 1.2375 0 1 1.192093E-07
-0.7386501 0.7027029 0.8250002 0 1 1.192093E-07
-0.7386501 0.7027031 5.960464E-08 0 0.6401845 -0.7682212
-0.7386501 0.702703 0.4125001 0 1 1.192093E-07
-0.8249001 0.702703 0.4125001 0 1 1.192093E-07
-0.9974001 0.7027029 1.2375 0 1 1.192093E-07
-0.9111501 0.7027029 0.8250002 0 1 1.192093E-07
-0.9111501 0.7027029 1.2375 0 1 1.192093E-07
-0.9561501 -2.267297 -2.384186E-07 0 1.192093E-07 -1
-1.02115 -2.762297 -2.384186E-07 0 1.192093E-07 -1
-0.8261501 -1.277297 -1.192093E-07 0 1.192093E-07 -1
-0.8911501 -1.772297 -2.384186E-07 0 1.192093E-07 -1
-1.06365 -1.772297 -2.384186E-07 0 1.192093E-07 -1
-0.9774001 -1.772297 -2.384186E-07 0 1.192093E-07 -1
-0.9986501 -1.277297 -1.192093E-07 0 1.192093E-07 -1
-0.6311501 0.207703 2.980232E-08 0 1.192093E-07 -1
-0.8036501 0.207703 2.980232E-08 0 1.192093E-07 -1
-0.7174001 0.207703 2.980232E-08 0 1.192093E-07 -1
-0.6961501 -0.287297 -2.980232E-08 0 1.192093E-07 -1
-0.7611501 -0.7822971 -1.192093E-07 0 1.192093E-07 -1
-1.14865 0.207703 2.980232E-08 0 1.192093E-07 -1
-1.0624 0.207703 2.980232E-08 0 1.192093E-07 -1
-1.0199 -0.7822971 -1.192093E-07 0 1.192093E-07 -1
-1.04115 -0.287297 -2.980232E-08 0 1.192093E-07 -1
-1.10615 -0.7822971 -1.192093E-07 0 1.192093E-07 -1
-0.9761501 0.207703 2.980232E-08 0 1.192093E-07 -1
-0.8899001 0.207703 2.980232E-08 0 1.192093E-07 -1
-0.8474001 -0.7822971 -1.192093E-07 0 1.192093E-07 -1
-0.8686501 -0.287297 -2.980232E-08 0 1.192093E-07 -1
-0.9336501 -0.7822971 -1.192093E-07 0 1.192093E-07 -1
-4.64365 -4.142297 -4.768372E-07 0 1.192093E-07 -1
-5.2349 -4.372297 -4.768372E-07 0 1.192093E-07 -1
-3.46115 -3.682297 -4.768372E-07 0 1.192093E-07 -1
-4.0524 -3.912297 -4.768372E-07 0 1.192093E-07 -1
-4.2449 -2.922297 -2.384186E-07 0 1.192093E-07 -1
-4.14865 -3.417297 -4.768372E-07 0 1.192093E-07 -1
-3.65365 -2.692297 -2.384186E-07 0 1.192093E-07 -1
-1.09615 -2.762297 -2.384186E-07 0 1.192093E-07 -1
-1.6874 -2.992297 -2.384186E-07 0 1.192093E-07 -1
-1.8799 -2.002297 -2.384186E-07 0 1.192093E-07 -1
-1.78365 -2.497297 -2.384186E-07 0 1.192093E-07 -1
-1.28865 -1.772297 -2.384186E-07 0 1.192093E-07 -1
-2.27865 -3.222297 -4.768372E-07 0 1.192093E-07 -1
-2.8699 -3.452297 -4.768372E-07 0 1.192093E-07 -1
-2.2649 -0.02229702 -1.862645E-09 0 5.960464E-08 -1
-2.16865 -0.5172971 -5.960464E-08 0 1.192093E-07 -1
-1.67365 0.207703 2.980232E-08 0 1.192093E-07 -1
-3.15865 -1.967297 -2.384186E-07 0 1.192093E-07 -1
-2.66365 -1.242297 -1.192093E-07 0 1.192093E-07 -1
-3.2549 -1.472297 -1.192093E-07 0 1.192093E-07 -1
-1.48115 -0.7822971 -1.192093E-07 0 1.192093E-07 -1
-2.0724 -1.012297 -1.192093E-07 0 1.192093E-07 -1
-1.97615 -1.507297 -2.384186E-07 0 1.192093E-07 -1
-2.96615 -2.957297 -2.384186E-07 0 1.192093E-07 -1
-2.47115 -2.232297 -2.384186E-07 0 1.192093E-07 -1
-3.0624 -2.462297 -2.384186E-07 0 1.192093E-07 -1
-1.59865 0.207703 2.980232E-08 0 1.192093E-07 -1
-1.6949 0.7027031 5.960464E-08 0 0.6401845 -0.7682212
-1.40615 -0.7822971 -1.192093E-07 0 1.192093E-07 -1
-1.5024 -0.287297 -2.980232E-08 0 1.192093E-07 -1
-1.5449 0.7027031 5.960464E-08 0 0.6401845 -0.7682212
-1.52365 0.207703 2.980232E-08 0 1.192093E-07 -1
-1.44865 0.207703 2.980232E-08 0 1.192093E-07 -1
-1.1174 -2.267297 -2.384186E-07 0 1.192093E-07 -1
-1.1599 -1.277297 -1.192093E-07 0 1.192093E-07 -1
-1.13865 -1.772297 -2.384186E-07 0 1.192093E-07 -1
-1.21365 -1.772297 -2.384186E-07 0 1.192093E-07 -1
-1.3099 -1.277297 -1.192093E-07 0 1.192093E-07 -1
-1.2449 0.7027031 5.960464E-08 0 0.6401843 -0.7682213
-1.22365 0.207703 2.980232E-08 0 1.192093E-07 -1
-1.37365 0.207703 2.980232E-08 0 1.192093E-07 -1
-1.29865 0.207703 2.980232E-08 0 1.192093E-07 -1
-1.3949 0.7027031 5.960464E-08 0 0.6401845 -0.7682212
-1.2024 -0.287297 -2.980232E-08 0 1.192093E-07 -1
-1.18115 -0.7822971 -1.192093E-07 0 1.192093E-07 -1
-1.33115 -0.7822971 -1.192093E-07 0 1.192093E-07 -1
-1.25615 -0.7822971 -1.192093E-07 0 1.192093E-07 -1
-1.3524 -0.287297 -2.980232E-08 0 1.192093E-07 -1
-5.7299 -0.02229702 -1.862645E-09 -0.6401844 1.192093E-07 -0.7682214
-5.2349 -0.02229702 -1.862645E-09 0 1.192093E-07 -1
-5.2349 0.7027031 5.960464E-08 0 0.4945244 -0.8691638
-5.2349 -1.472297 -1.192093E-07 0 1.192093E-07 -1
-5.2349 -0.7472971 -5.960464E-08 0 1.192093E-07 -1
-5.7299 -1.472297 -1.192093E-07 -0.6401844 1.192093E-07 -0.7682214
-4.2449 0.7027031 5.960464E-08 0 0.4945244 -0.8691638
-4.7399 -0.02229702 -1.862645E-09 0 1.192093E-07 -1
-4.2449 -0.02229702 -1.862645E-09 0 1.192093E-07 -1
-5.2349 -3.647297 -4.768372E-07 0 1.192093E-07 -1
-5.7299 -4.372297 -4.768372E-07 -0.6401844 1.192093E-07 -0.7682214
-4.2449 -2.197297 -2.384186E-07 0 1.192093E-07 -1
-4.7399 -2.922297 -2.384186E-07 0 1.192093E-07 -1
-5.7299 -2.922297 -2.384186E-07 -0.6401844 1.192093E-07 -0.7682214
-5.2349 -2.922297 -2.384186E-07 0 1.192093E-07 -1
-5.2349 -2.197297 -2.384186E-07 0 1.192093E-07 -1
-2.2649 0.7027031 5.960464E-08 0 0.4945244 -0.8691638
-2.7599 -0.02229702 -1.862645E-09 0 1.192093E-07 -1
-3.7499 -0.02229702 -1.862645E-09 0 1.192093E-07 -1
-3.2549 -0.02229702 -1.862645E-09 0 1.192093E-07 -1
-3.2549 0.7027031 5.960464E-08 0 0.4945244 -0.8691638
-3.2549 -0.7472971 -5.960464E-08 0 1.192093E-07 -1
-3.7499 -1.472297 -1.192093E-07 0 1.192093E-07 -1
-4.7399 -1.472297 -1.192093E-07 0 1.192093E-07 -1
-4.2449 -1.472297 -1.192093E-07 0 1.192093E-07 -1
-4.2449 -0.7472971 -5.960464E-08 0 1.192093E-07 -1
-5.7299 -4.372298 2.475 -1 0 0
-5.7299 -4.372297 2.8875 -1 0 0
-5.7299 -4.372297 1.65 -1 0 0
-5.7299 -4.372297 2.0625 -1 0 0
-5.7299 -2.922297 2.0625 -1 0 0
-5.7299 -3.647298 2.0625 -1 0 0
-5.7299 -2.922297 1.65 -1 0 0
-5.7299 -4.372297 0.4124997 -1 0 0
-5.7299 -2.922297 0.4124999 -1 0 0
-5.7299 -3.647297 0.4124997 -1 0 0
-5.7299 -4.372298 0.8249996 -1 0 0
-5.7299 -4.372297 1.2375 -1 0 0
-5.7299 -0.02229708 0.4125001 -1 0 0
-5.7299 -0.7472972 0.4125 -1 0 0
-5.7299 -2.197297 1.2375 -1 0 0
-5.7299 -1.472297 0.825 -1 0 0
-5.7299 -1.472297 1.2375 -1 0 0
-5.7299 -1.472297 0.4124999 -1 0 0
-5.7299 -2.197298 0.4124998 -1 0 0
-5.7299 -3.647298 1.2375 -1 0 0
-5.7299 -2.922297 0.8249998 -1 0 0
-5.7299 -2.922297 1.2375 -1 0 0
-5.7299 -0.02229738 3.3 -0.5721816 -1.192093E-07 0.820127
-5.7299 -0.02229714 2.8875 -1 0 0
-5.7299 0.7027028 2.8875 -0.8258657 0.563867 5.960464E-08
-5.7299 -1.472297 2.8875 -1 0 0
-5.7299 -0.7472973 2.8875 -1 0 0
-5.7299 -1.472298 3.3 -0.5721816 -1.192093E-07 0.820127
-5.7299 0.7027028 2.0625 -0.8258657 0.563867 5.960464E-08
-5.7299 -0.02229714 2.475 -1 0 0
-5.7299 -0.02229714 2.0625 -1 0 0
-5.7299 -3.647298 2.8875 -1 0 0
-5.7299 -4.372297 3.3 -0.5721816 -1.192093E-07 0.820127
-5.7299 -2.197298 2.0625 -1 0 0
-5.7299 -2.922297 2.475 -1 0 0
-5.7299 -2.922298 3.3 -0.5721816 -1.192093E-07 0.820127
-5.7299 -2.922297 2.8875 -1 0 0
-5.7299 -2.197298 2.8875 -1 0 0
-5.7299 0.702703 0.4125001 -0.8258657 0.563867 5.960464E-08
-5.7299 -0.02229714 0.8250001 -1 0 0
-5.7299 -0.02229726 1.65 -1 0 0
-5.7299 -0.02229714 1.2375 -1 0 0
-5.7299 0.7027029 1.2375 -0.8258657 0.563867 5.960464E-08
-5.7299 -0.7472973 1.2375 -1 0 0
-5.7299 -1.472297 1.65 -1 0 0
-5.7299 -1.472297 2.475 -1 0 0
-5.7299 -1.472297 2.0625 -1 0 0
-5.7299 -0.7472973 2.0625 -1 0 0
-2.1824 -2.992297 3.3 0 -1.192093E-07 1
-1.59115 -2.762298 3.3 0 -1.192093E-07 1
-3.3649 -3.452298 3.3 0 -1.192093E-07 1
-2.77365 -3.222298 3.3 0 -1.192093E-07 1
-2.77365 -1.772298 3.3 0 -1.192093E-07 1
-2.77365 -2.497298 3.3 0 -1.192093E-07 1
-3.3649 -2.002298 3.3 0 -1.192093E-07 1
-5.13865 -4.142298 3.3 0 -1.192093E-07 1
-5.13865 -2.692298 3.3 0 -1.192093E-07 1
-5.13865 -3.417298 3.3 0 -1.192093E-07 1
-4.5474 -3.912298 3.3 0 -1.192093E-07 1
-3.95615 -3.682298 3.3 0 -1.192093E-07 1
-5.13865 0.2077026 3.300001 0 -1.192093E-07 1
-5.13865 -0.5172975 3.3 0 -1.192093E-07 1
-3.95615 -1.507298 3.3 0 -1.192093E-07 1
-4.5474 -1.012298 3.3 0 -1.192093E-07 1
-3.95615 -0.7822974 3.3 0 -1.192093E-07 1
-5.13865 -1.242297 3.3 0 -1.192093E-07 1
-5.13865 -1.967298 3.3 0 -1.192093E-07 1
-3.95615 -2.957298 3.3 0 -1.192093E-07 1
-4.5474 -2.462298 3.3 0 -1.192093E-07 1
-3.95615 -2.232298 3.3 0 -1.192093E-07 1
-5.2349 0.7027028 2.475 0 1 1.192093E-07
-5.2349 0.7027028 2.8875 0 1 1.192093E-07
-5.2349 0.7027028 1.65 0 1 1.192093E-07
-5.2349 0.7027028 2.0625 0 1 1.192093E-07
-4.2449 0.7027028 2.0625 0 1 1.192093E-07
-4.7399 0.7027028 2.0625 0 1 1.192093E-07
-4.2449 0.7027028 1.65 0 1 1.192093E-07
-5.2349 0.702703 0.4125001 0 1 1.192093E-07
-4.2449 0.702703 0.4125001 0 1 1.192093E-07
-4.7399 0.702703 0.4125001 0 1 1.192093E-07
-5.2349 0.7027029 0.8250002 0 1 1.192093E-07
-5.2349 0.7027029 1.2375 0 1 1.192093E-07
-2.2649 0.702703 0.4125001 0 1 1.192093E-07
-2.7599 0.702703 0.4125001 0 1 5.960464E-08
-3.7499 0.7027029 1.2375 0 1 1.192093E-07
-3.2549 0.7027029 0.8250002 0 1 1.192093E-07
-3.2549 0.7027029 1.2375 0 1 1.192093E-07
-3.2549 0.702703 0.4125001 0 1 1.192093E-07
-3.7499 0.702703 0.4125001 0 1 1.192093E-07
-4.7399 0.7027029 1.2375 0 1 1.192093E-07
-4.2449 0.7027029 0.8250002 0 1 1.192093E-07
-4.2449 0.7027029 1.2375 0 1 1.192093E-07
-1.67365 0.2077026 3.300001 0 -1.192093E-07 1
-2.16865 0.2077026 3.300001 0 -1.192093E-07 1
-2.2649 0.7027025 3.300001 0 0.6401843 0.7682214
-1.97615 -0.7822974 3.3 0 -1.192093E-07 1
-2.0724 -0.2872975 3.3 0 -1.192093E-07 1
-1.48115 -0.7822974 3.3 0 -1.192093E-07 1
-3.2549 0.7027025 3.300001 0 0.6401843 0.7682214
-2.66365 0.2077026 3.300001 0 -1.192093E-07 1
-3.15865 0.2077026 3.300001 0 -1.192093E-07 1
-1.6874 -2.267298 3.3 0 -1.192093E-07 1
-1.09615 -2.762298 3.3 0 -1.192093E-07 1
-2.8699 -1.277298 3.3 0 -1.192093E-07 1
-2.27865 -1.772298 3.3 0 -1.192093E-07 1
-1.28865 -1.772298 3.3 0 -1.192093E-07 1
-1.78365 -1.772298 3.3 0 -1.192093E-07 1
-1.8799 -1.277298 3.3 0 -1.192093E-07 1
-5.2349 0.7027025 3.300001 0 0.6401843 0.7682214
-4.64365 0.2077026 3.300001 0 -1.192093E-07 1
-3.65365 0.2077026 3.300001 0 -1.192093E-07 1
-4.14865 0.2077026 3.300001 0 -1.192093E-07 1
-4.2449 0.7027025 3.300001 0 0.6401843 0.7682214
-4.0524 -0.2872975 3.3 0 -1.192093E-07 1
-3.46115 -0.7822974 3.3 0 -1.192093E-07 1
-2.47115 -0.7822974 3.3 0 -1.192093E-07 1
-2.96615 -0.7822974 3.3 0 -1.192093E-07 1
-3.0624 -0.2872975 3.3 0 -1.192093E-07 1
-1.1174 -2.267298 3.3 0 -1.192093E-07 1
-1.3099 -1.277298 3.3 0 -1.192093E-07 1
-1.21365 -1.772298 3.3 0 -1.192093E-07 1
-1.13865 -1.772298 3.3 0 -1.192093E-07 1
-1.1599 -1.277298 3.3 0 -1.192093E-07 1
-1.6949 0.7027025 3.300001 0 0.6401843 0.7682214
-1.59865 0.2077026 3.300001 0 -1.192093E-07 1
-1.44865 0.2077026 3.300001 0 -1.192093E-07 1
-1.52365 0.2077026 3.300001 0 -1.192093E-07 1
-1.5449 0.7027025 3.300001 0 0.6401843 0.7682214
-1.5024 -0.2872975 3.3 0 -1.192093E-07 1
-1.40615 -0.7822974 3.3 0 -1.192093E-07 1
-1.22365 0.2077026 3.300001 0 -1.192093E-07 1
-1.2449 0.7027025 3.300001 0 0.6401843 0.7682214
-1.18115 -0.7822974 3.3 0 -1.192093E-07 1
-1.2024 -0.2872975 3.3 0 -1.192093E-07 1
-1.3949 0.7027025 3.300001 0 0.6401843 0.7682214
-1.29865 0.2077026 3.300001 0 -1.192093E-07 1
-1.37365 0.2077026 3.300001 0 -1.192093E-07 1
-1.33115 -0.7822974 3.3 0 -1.192093E-07 1
-1.3524 -0.2872975 3.3 0 -1.192093E-07 1
-1.25615 -0.7822974 3.3 0 -1.192093E-07 1
-1.2449 0.7027028 2.8875 0 1 1.192093E-07
-1.3949 0.7027028 2.8875 0 1 5.960464E-08
-1.3199 0.7027028 2.8875 0 1 5.960464E-08
-1.2449 0.7027028 2.475 0 1 1.192093E-07
-1.2449 0.7027028 2.0625 0 1 1.192093E-07
-1.6949 0.7027028 2.8875 0 1 5.960464E-08
-1.6199 0.7027028 2.8875 0 1 5.960464E-08
-1.4699 0.7027028 2.0625 0 1 5.960464E-08
-1.5449 0.7027028 2.475 0 1 5.960464E-08
-1.5449 0.7027028 2.0625 0 1 5.960464E-08
-1.5449 0.7027028 2.8875 0 1 5.960464E-08
-1.4699 0.7027028 2.8875 0 1 5.960464E-08
-1.2449 0.7027029 0.8250002 0 1 1.192093E-07
-1.2449 0.702703 0.4125001 0 1 1.192093E-07
-1.2449 0.7027028 1.65 0 1 1.192093E-07
-1.2449 0.7027029 1.2375 0 1 1.192093E-07
-1.3949 0.7027029 1.2375 0 1 5.960464E-08
-1.3199 0.7027029 1.2375 0 1 5.960464E-08
-1.3949 0.7027028 1.65 0 1 5.960464E-08
-1.3949 0.7027028 2.475 0 1 5.960464E-08
-1.3949 0.7027028 2.0625 0 1 5.960464E-08
-1.3199 0.7027028 2.0625 0 1 5.960464E-08
-1.7699 0.7027028 2.8875 0 1 5.960464E-08
-1.6949 0.7027028 2.475 0 1 5.960464E-08
-1.6949 0.7027028 1.65 0 1 5.960464E-08
-1.6949 0.7027028 2.0625 0 1 5.960464E-08
-1.7699 0.7027028 2.0625 0 1 5.960464E-08
-1.6199 0.7027028 2.0625 0 1 5.960464E-08
-1.5449 0.7027028 1.65 0 1 5.960464E-08
-1.6949 0.702703 0.4125001 0 1 5.960464E-08
-1.7699 0.702703 0.4125001 0 1 5.960464E-08
-1.5449 0.702703 0.4125001 0 1 5.960464E-08
-1.6199 0.702703 0.4125001 0 1 5.960464E-08
-1.7699 0.7027029 1.2375 0 1 5.960464E-08
-1.6949 0.7027029 0.8250002 0 1 5.960464E-08
-1.6949 0.7027029 1.2375 0 1 5.960464E-08
-1.3199 0.702703 0.4125001 0 1 5.960464E-08
-1.4699 0.7027029 1.2375 0 1 5.960464E-08
-1.3949 0.7027029 0.8250002 0 1 5.960464E-08
-1.3949 0.702703 0.4125001 0 1 5.960464E-08
-1.4699 0.702703 0.4125001 0 1 5.960464E-08
-1.6199 0.7027029 1.2375 0 1 5.960464E-08
-1.5449 0.7027029 0.8250002 0 1 5.960464E-08
-1.5449 0.7027029 1.2375 0 1 5.960464E-08
-2.2649 0.7027028 2.8875 0 1 1.192093E-07
-3.2549 0.7027028 2.8875 0 1 1.192093E-07
-2.7599 0.7027028 2.8875 0 1 5.960464E-08
-2.2649 0.7027028 2.475 0 1 1.192093E-07
-2.2649 0.7027028 2.0625 0 1 1.192093E-07
-4.7399 0.7027028 2.8875 0 1 1.192093E-07
-3.7499 0.7027028 2.0625 0 1 1.192093E-07
-4.2449 0.7027028 2.475 0 1 1.192093E-07
-4.2449 0.7027028 2.8875 0 1 1.192093E-07
-3.7499 0.7027028 2.8875 0 1 1.192093E-07
-2.2649 0.7027029 0.8250002 0 1 1.192093E-07
-2.2649 0.7027028 1.65 0 1 1.192093E-07
-2.2649 0.7027029 1.2375 0 1 1.192093E-07
-2.7599 0.7027029 1.2375 0 1 5.960464E-08
-3.2549 0.7027028 1.65 0 1 1.192093E-07
-3.2549 0.7027028 2.475 0 1 1.192093E-07
-3.2549 0.7027028 2.0625 0 1 1.192093E-07
-2.7599 0.7027028 2.0625 0 1 5.960464E-08
-1.0124 -12.3298 3.299998 0.6841997 -5.960464E-08 0.7292948
-1.0124 -12.3298 2.887498 1 0 0
-1.0124 -12.8673 2.887498 0.7740174 -0.6331644 -5.960464E-08
-1.0124 -11.2548 2.887499 1 0 0
-1.0124 -11.7923 2.887499 1 0 0
-1.0124 -11.2548 3.299999 0.6841997 -5.960464E-08 0.7292948
-1.0124 -12.8673 2.062498 0.7740174 -0.6331644 -5.960464E-08
-1.0124 -12.3298 2.474998 1 0 0
-1.0124 -12.3298 2.062498 1 0 0
-1.0124 -9.104798 2.887499 1 0 0
-1.0124 -9.642299 2.887499 1 0 0
-1.0124 -9.104798 3.299999 0.6841995 -5.960464E-08 0.729295
-1.0124 -10.7173 2.062499 1 0 0
-1.0124 -10.1798 2.474999 1 0 0
-1.0124 -10.1798 2.062499 1 0 0
-1.0124 -10.1798 3.299999 0.6841997 -5.960464E-08 0.7292948
-1.0124 -10.1798 2.887499 1 0 0
-1.0124 -10.7173 2.887499 1 0 0
-1.0124 -12.8673 0.4124985 0.7740174 -0.6331644 -5.960464E-08
-1.0124 -12.3298 0.8249979 1 0 0
-1.0124 -12.3298 0.4124985 1 0 0
-1.0124 -12.3298 1.649999 1 0 0
-1.0124 -12.3298 1.237498 1 0 0
-1.0124 -12.8673 1.237498 0.7740174 -0.6331644 -5.960464E-08
-1.0124 -11.2548 1.237499 1 0 0
-1.0124 -11.7923 1.237499 1 0 0
-1.0124 -11.2548 1.65 1 0 0
-1.0124 -11.2548 2.474999 1 0 0
-1.0124 -11.2548 2.062499 1 0 0
-1.0124 -11.7923 2.062499 1 0 0
-1.0124 -8.567298 2.887499 0.7740178 0.633164 5.960464E-08
-1.0124 -9.104799 2.474999 1 0 0
-1.0124 -9.104799 1.649999 1 0 0
-1.0124 -9.104798 2.062499 1 0 0
-1.0124 -8.567298 2.062499 0.7740178 0.633164 5.960464E-08
-1.0124 -9.642298 2.062499 1 0 0
-1.0124 -10.1798 1.65 1 0 0
-1.0124 -9.104798 -9.536743E-07 0.6841998 5.960464E-08 -0.7292947
-1.0124 -9.104798 0.4124994 1 0 0
-1.0124 -8.567298 0.4124994 0.7740178 0.633164 5.960464E-08
-1.0124 -10.1798 0.4124994 1 0 0
-1.0124 -9.642298 0.4124994 1 0 0
-1.0124 -10.1798 -9.536743E-07 0.6841997 5.960464E-08 -0.7292948
-1.0124 -8.567298 1.237499 0.7740178 0.633164 5.960464E-08
-1.0124 -9.104798 0.8249989 1 0 0
-1.0124 -9.104798 1.237499 1 0 0
-1.0124 -11.7923 0.4124994 1 0 0
-1.0124 -12.3298 -1.907349E-06 0.6841997 5.960464E-08 -0.7292948
-1.0124 -10.7173 1.237499 1 0 0
-1.0124 -11.2548 0.8249989 1 0 0
-1.0124 -11.2548 -9.536743E-07 0.6841997 5.960464E-08 -0.7292948
-1.0124 -11.2548 0.4124994 1 0 0
-1.0124 -10.7173 0.4124994 1 0 0
-1.0124 -9.642298 1.237499 1 0 0
-1.0124 -10.1798 0.8249989 1 0 0
-1.0124 -10.1798 1.237499 1 0 0
-4.090213 -12.8673 -1.907349E-06 0 -0.6088187 -0.7933095
-3.650525 -12.3298 -1.907349E-06 0 1.192093E-07 -1
-4.090213 -12.3298 -1.907349E-06 0 1.192093E-07 -1
-2.77115 -12.3298 -1.907349E-06 0 1.192093E-07 -1
-3.210838 -12.3298 -1.907349E-06 0 1.192093E-07 -1
-3.210838 -12.8673 -1.907349E-06 0 -0.6088187 -0.7933095
-3.210838 -11.2548 -9.536743E-07 0 1.192093E-07 -1
-3.210838 -11.7923 -9.536743E-07 0 1.192093E-07 -1
-2.77115 -11.2548 -9.536743E-07 0 1.192093E-07 -1
-1.452088 -12.3298 -1.907349E-06 0 1.192093E-07 -1
-1.452088 -12.8673 -1.907349E-06 0 -0.6088187 -0.7933094
-1.452088 -11.2548 -9.536743E-07 0 1.192093E-07 -1
-1.452088 -11.7923 -9.536743E-07 0 1.192093E-07 -1
-2.331463 -12.8673 -1.907349E-06 0 -0.6088187 -0.7933095
-1.891775 -12.3298 -1.907349E-06 0 1.192093E-07 -1
-2.331463 -12.3298 -1.907349E-06 0 1.192093E-07 -1
-1.452088 -9.104798 -9.536743E-07 0 1.192093E-07 -1
-1.452088 -9.642298 -9.536743E-07 0 1.192093E-07 -1
-2.331463 -10.7173 -9.536743E-07 0 1.192093E-07 -1
-1.891775 -10.1798 -9.536743E-07 0 1.192093E-07 -1
-2.331463 -10.1798 -9.536743E-07 0 1.192093E-07 -1
-1.452088 -10.1798 -9.536743E-07 0 1.192093E-07 -1
-1.452088 -10.7173 -9.536743E-07 0 1.192093E-07 -1
-2.331463 -11.7923 -9.536743E-07 0 1.192093E-07 -1
-1.891775 -11.2548 -9.536743E-07 0 1.192093E-07 -1
-2.331463 -11.2548 -9.536743E-07 0 1.192093E-07 -1
-1.452088 -12.8673 2.474998 0 -1 -1.192093E-07
-1.452088 -12.8673 2.887498 0 -1 -1.192093E-07
-1.452088 -12.8673 1.649999 0 -1 -1.192093E-07
-1.452088 -12.8673 2.062498 0 -1 -1.192093E-07
-2.331463 -12.8673 2.062498 0 -1 -1.192093E-07
-1.891775 -12.8673 2.062498 0 -1 -1.192093E-07
-2.331463 -12.8673 1.649999 0 -1 -1.192093E-07
-1.452088 -12.8673 0.4124985 0 -1 -1.192093E-07
-2.331463 -12.8673 0.4124985 0 -1 -1.192093E-07
-1.891775 -12.8673 0.4124985 0 -1 -1.192093E-07
-1.452088 -12.8673 0.8249979 0 -1 -1.192093E-07
-1.452088 -12.8673 1.237498 0 -1 -1.192093E-07
-4.090213 -12.8673 0.4124985 0 -1 -1.192093E-07
-3.650525 -12.8673 0.4124985 0 -1 -1.192093E-07
-2.77115 -12.8673 1.237498 0 -1 -1.192093E-07
-3.210838 -12.8673 0.8249979 0 -1 -1.192093E-07
-3.210838 -12.8673 1.237498 0 -1 -1.192093E-07
-3.210838 -12.8673 0.4124985 0 -1 -1.192093E-07
