# .PCD v.7 - Point Cloud Data file format
VERSION .7
FIELDS x y z normal_x normal_y normal_z
SIZE 4 4 4 4 4 4
TYPE F F F F F F
COUNT 1 1 1 1 1 1
WIDTH 1334
HEIGHT 1
VIEWPOINT 0 0 0 1 0 0 0
POINTS 1334
DATA ascii
6.0299 2.614383 -0.5916009 0.3826732 -0.9238838 0
6.0299 2.623764 -0.1314609 0.3420015 -0.9396995 0
6.0299 2.773746 0.3133221 0.3826854 -0.9238788 0
6.0299 2.773746 0.8420603 -0.9914443 -0.1305307 0
6.0299 2.773746 -0.7441547 -0.9914448 -0.1305272 0
6.0299 2.773746 -0.2154162 -0.9914452 -0.1305236 0
6.0299 2.785698 -0.2341783 -0.9961952 -0.08714993 0
6.0299 2.779722 -0.2247972 0.3006882 -0.9537225 0
6.0299 2.785698 -0.7629166 0.3006882 -0.9537225 0
6.0299 2.785698 1.408323 0.2588149 -0.9659269 0
6.0299 2.785698 0.8608223 0.3006881 -0.9537225 0
6.0299 2.791675 0.8702033 -0.9990482 -0.04362048 0
6.0299 2.779722 0.8514414 -0.9990482 -0.04362048 0
6.0299 2.773746 1.389561 -0.9990483 -0.04362047 0
6.0299 2.791675 -0.2247972 -0.9990482 -0.04362048 0
6.0299 2.785698 0.3133221 0.2164493 -0.9762939 0
6.0299 2.796811 0.3128366 0.2164493 -0.9762938 0
6.0299 2.796811 0.860337 0.1736587 -0.9848059 0
6.0299 2.796811 -0.7821639 0.2164493 -0.9762939 0
6.0299 2.796811 -0.2346635 0.1305377 -0.9914433 0
6.0299 2.807083 -0.254396 0.1305377 -0.9914434 0
6.0299 2.801947 -0.2445297 0.08717306 -0.9961932 0
6.0299 2.807082 -0.8018963 0.1305377 -0.9914433 0
6.0299 2.807083 1.447302 0.0436414 -0.9990472 0
6.0299 2.807083 0.8800695 0.0436414 -0.9990473 0
6.0299 2.812219 0.8899355 0.0436414 -0.9990472 0
6.0299 2.801947 0.8702033 -0.0436414 -0.9990473 0
6.0299 2.796811 1.42757 -1 0 0
6.0299 2.812219 -0.2445297 -1 0 0
6.0299 2.807083 0.3128366 -1 0 0
6.0299 2.555261 1.20623 -1 0 0
6.0299 2.555261 0.7623382 -1 0 0
6.0299 2.565537 0.7665948 0 1 0
6.0299 2.534708 0.7538251 0 0.9999999 0
6.0299 2.544984 0.7580817 0 1 0
6.0299 2.534708 1.197717 0 1 0
6.0299 2.565537 -0.1211889 0 1 0
6.0299 2.555261 0.3184464 1 0 0
6.0299 2.555261 -0.1254454 1 0 0
6.0299 2.585269 -0.1314609 1 0 0
6.0299 2.595135 -0.5804887 1 0 0
6.0299 2.575403 0.3175669 1 0 0
6.0299 2.575403 -0.5702167 -0.04359908 -0.9990491 0
6.0299 2.575403 -0.1263249 0 -1 0
6.0299 2.513824 1.190115 -0.04359908 -0.9990491 0
6.0299 2.513824 0.7547369 -0.1305377 -0.9914433 0
6.0299 2.524432 0.7580817 -0.1305358 -0.9914436 0
6.0299 2.503215 0.7513921 -0.1736531 -0.9848069 0
6.0299 2.492607 1.183426 -0.1305395 -0.9914431 0
6.0299 2.524432 -0.1126757 -0.08714992 -0.9961952 0
6.0299 2.513824 0.3193581 -0.2164448 -0.9762949 0
6.0299 2.544984 -0.1211889 -0.2164448 -0.9762949 0
6.0299 2.555261 -0.5608242 -0.2588376 -0.9659208 0
6.0299 2.534708 0.3184464 -0.2164448 -0.9762949 0
6.0299 2.534708 -0.5523109 0.9990473 -0.04364 0
6.0299 2.534708 -0.1169324 0.9990473 -0.04364187 0
6.0299 2.816475 0.3124266 0.9990473 -0.04364 0
6.0299 2.816475 0.8796593 0.9990473 -0.04364 0
6.0299 2.816475 -0.8220387 0.9961951 -0.08715178 0
6.0299 2.816475 -0.254806 -0.3007272 -0.9537103 0
6.0299 2.824988 -0.2753587 -0.300723 -0.9537115 0
6.0299 2.820732 -0.2650824 -0.3420221 -0.9396919 0
6.0299 2.824988 -0.8425913 -0.3007313 -0.953709 0
6.0299 2.824988 1.487997 0.9914488 -0.1304955 0
6.0299 2.824988 0.9002118 0.9914489 -0.1304955 0
6.0299 2.820732 0.8899355 0.9847988 -0.1736984 0
6.0299 2.816475 1.467445 0.9914488 -0.1304955 0
6.0299 2.824988 0.3124266 -0.3826603 -0.9238891 0
5.7299 2.475002 5.342706 -0.3826542 -0.9238916 0
5.8049 1.650002 5.342706 -0.4225883 -0.9063217 0
5.8049 2.475002 5.342706 -0.3826664 -0.9238865 0
5.8049 4.768372E-07 5.342706 0.9763039 -0.2164039 0
5.8049 0.8250012 5.342705 0.9763039 -0.2164039 0
5.7299 0.8250012 5.342705 0.965933 -0.2587922 0
5.9549 0.8250012 5.342705 0.9763039 -0.2164039 0
5.8799 0.8250012 5.342705 -0.4617468 -0.8870118 0
5.9549 4.768372E-07 5.342706 -0.4617527 -0.8870087 0
5.9549 3.300003 5.342705 -0.4999973 -0.8660269 0
5.9549 2.475002 5.342706 -0.4617409 -0.8870147 0
6.0299 2.475002 5.342706 0.9537225 -0.3006882 0
5.8799 2.475002 5.342706 0.9537225 -0.3006882 0
5.8049 3.300003 5.342705 0.9397007 -0.341998 0
6.0299 0.8250012 5.342705 0.9537225 -0.3006881 0
5.9549 1.650002 5.342706 -0.5372776 -0.8434054 0
5.8049 -9.536743E-07 -8.407302 -0.5372776 -0.8434054 0
5.8799 -4.768372E-07 -4.9698 -0.5735632 -0.8191614 0
5.8049 -4.768372E-07 -4.9698 -0.5372776 -0.8434054 0
6.0299 -4.768372E-07 -4.9698 0.9238752 -0.3826938 0
5.9549 -4.768372E-07 -4.9698 0.9238701 -0.382706 0
5.9549 -9.536743E-07 -8.407302 0.9062895 -0.4226576 0
5.9549 2.384186E-07 1.905204 0.9238803 -0.3826816 0
5.9549 -2.384186E-07 -1.532298 -0.6087843 -0.7933357 0
6.0299 2.384186E-07 1.905204 -0.6087843 -0.7933359 0
5.7299 2.384186E-07 1.905204 -0.6427849 -0.7660467 0
5.8049 2.384186E-07 1.905204 0.8869942 -0.4617805 0
5.8049 4.768372E-07 5.342706 0.8869942 -0.4617805 0
5.8049 -2.384186E-07 -1.532298 -0.6087843 -0.7933359 0
5.7299 -4.768372E-07 -4.9698 0.8869942 -0.4617806 0
5.9549 4.768372E-07 5.342706 0.8660269 -0.4999973 0
5.8799 2.384186E-07 1.905204 -0.6755887 -0.7372787 0
6.0299 3.300002 1.905204 -0.6755887 -0.7372786 0
5.9549 3.300002 -1.532299 -0.707096 -0.7071174 0
5.9549 3.300002 1.905204 -0.6755887 -0.7372787 0
5.9549 3.300001 -8.407303 0.8434036 -0.5372804 0
5.9549 3.300002 -4.9698 0.8433993 -0.5372874 0
6.0299 3.300002 -4.9698 0.8433948 -0.5372943 0
5.8049 3.300002 -4.9698 0.8191311 -0.5736063 0
5.8799 3.300002 -4.9698 -0.7372574 -0.675612 0
5.8049 3.300001 -8.407303 -0.7372574 -0.675612 0
5.8799 3.300002 1.905204 -0.7660361 -0.6427975 0
5.9549 3.300003 5.342705 -0.7372574 -0.675612 0
5.7299 3.300002 -4.9698 0.7933723 -0.6087366 0
5.8049 3.300002 -1.532299 0.7933723 -0.6087366 0
5.8049 3.300003 5.342705 0.7660362 -0.6427975 0
5.8049 3.300002 1.905204 0.7933723 -0.6087366 0
5.7299 3.300002 1.905204 -0.7933723 -0.6087366 0
6.0299 2.475 -8.407302 -0.7933723 -0.6087366 0
5.9549 1.65 -8.407302 -0.8191311 -0.5736063 0
5.9549 2.475 -8.407302 -0.7933723 -0.6087366 0
5.9549 -9.536743E-07 -8.407302 0.7372574 -0.675612 0
5.9549 0.8249998 -8.407302 0.7372574 -0.675612 0
6.0299 0.8249998 -8.407302 0.7071175 -0.7070961 0
5.8049 0.8249998 -8.407302 0.7372574 -0.675612 0
5.8799 0.8249998 -8.407302 -0.8433799 -0.5373179 0
5.8049 -9.536743E-07 -8.407302 -0.8433778 -0.5373211 0
5.8049 3.300001 -8.407303 -0.8660269 -0.4999974 0
5.8049 2.475 -8.407302 -0.8433819 -0.5373146 0
5.7299 2.475 -8.407302 0.6755887 -0.7372787 0
5.8799 2.475 -8.407302 0.6755887 -0.7372786 0
5.9549 3.300001 -8.407303 0.6427849 -0.7660467 0
5.7299 0.8249998 -8.407302 0.6755887 -0.7372787 0
5.8049 1.65 -8.407302 -0.8870293 -0.4617131 0
6.0299 2.010001 -3.197299 -0.8870294 -0.4617131 0
5.9549 1.650001 -3.197299 -0.9063224 -0.4225871 0
5.9549 2.010001 -3.197299 0.6087843 -0.7933357 0
5.9549 0.9300001 -3.197299 0.6087843 -0.7933359 0
5.9549 1.29 -3.197299 0.5735631 -0.8191614 0
6.0299 1.29 -3.197299 -0.8870293 -0.4617131 0
5.8049 1.29 -3.197299 0.6087843 -0.7933359 0
5.8799 1.29 -3.197299 -0.9238904 -0.3826572 0
5.8049 0.9300001 -3.197299 -0.9238904 -0.3826572 0
5.8799 2.010001 -3.197299 0.5372776 -0.8434054 0
5.9549 2.370001 -3.197299 0.5372776 -0.8434054 0
5.7299 1.29 -3.197299 0.4999787 -0.8660377 0
5.8049 1.650001 -3.197299 -0.9238905 -0.3826572 0
5.8049 2.370001 -3.197299 -0.9397007 -0.341998 0
5.8049 2.010001 -3.197299 0.5372776 -0.8434054 0
5.7299 2.010001 -3.197299 -0.9537225 -0.3006881 0
6.0299 2.878546 -3.740637 -0.9537225 -0.3006882 0
5.9549 2.879031 -3.729524 -0.9537225 -0.3006882 0
5.9549 2.878546 -3.740637 -0.9659223 -0.2588322 0
5.9549 2.880001 -3.707299 0.4617468 -0.8870118 0
5.9549 2.879516 -3.718412 0.4617527 -0.8870087 0
6.0299 2.879516 -3.718412 0.4226212 -0.9063064 0
5.8049 2.879516 -3.718412 0.4617409 -0.8870147 0
5.8799 2.879516 -3.718412 -0.9763039 -0.2164039 0
5.8049 2.880001 -3.707299 -0.9763039 -0.2164039 0
5.9549 2.873705 -3.784832 -0.9763039 -0.2164039 0
5.8799 2.873705 -3.784832 -0.9848135 -0.1736152 0
5.9549 2.872253 -3.79586 0.3826907 -0.9238766 0
5.7299 2.876609 -3.762776 0.3826968 -0.923874 0
5.8049 2.875157 -3.773804 0.3420497 -0.9396819 0
5.8049 2.876609 -3.762776 0.3826846 -0.9238791 0
5.8049 2.872253 -3.79586 -0.9914488 -0.1304955 0
5.8049 2.873705 -3.784832 -0.9914488 -0.1304955 0
5.7299 2.873705 -3.784832 -0.9914489 -0.1304955 0
6.0299 2.873705 -3.784832 -0.9961913 -0.08719437 0
5.9549 2.875157 -3.773804 0.3007272 -0.9537103 0
5.9549 2.878061 -3.751749 0.300723 -0.9537115 0
5.9549 2.876609 -3.762776 0.2588269 -0.9659237 0
6.0299 2.876609 -3.762776 0.3007313 -0.953709 0
5.8799 2.876609 -3.762776 -0.9990473 -0.04364 0
5.8049 2.878061 -3.751749 -0.9990473 -0.04364 0
5.9549 2.865031 -3.828438 -0.9990473 -0.04364 0
5.8799 2.865031 -3.828438 -0.9990473 -0.04364187 0
5.9549 2.862623 -3.839297 0.2164448 -0.9762949 0
5.7299 2.869846 -3.806719 0.2164448 -0.9762949 0
5.8049 2.867438 -3.817579 0.1736532 -0.9848069 0
5.8049 2.869846 -3.806719 0.2164448 -0.9762949 0
5.8049 2.862623 -3.839297 0.1305321 -0.9914441 0
5.8049 2.865031 -3.828438 0.1305321 -0.9914441 0
5.7299 2.865031 -3.828438 0.08714992 -0.9961952 0
6.0299 2.865031 -3.828438 0.1305321 -0.991444 0
5.9549 2.867438 -3.817579 0.04359908 -0.9990491 0
5.9549 2.869846 -3.806719 0.04359908 -0.9990491 0
6.0299 2.869846 -3.806719 0.04359908 -0.9990491 0
5.8799 2.869846 -3.806719 -0.04359908 -0.9990491 0
6.0299 2.403338 -3.198755 -1 0 0
5.9549 2.392226 -3.19827 -1 0 0
5.9549 2.403338 -3.198755 -1 0 0
5.9549 2.370001 -3.197299 -1 0 0
5.9549 2.381113 -3.197784 -1 0 0
6.0299 2.381113 -3.197784 0 1 0
5.8049 2.381113 -3.197784 0 1 0
5.8799 2.381113 -3.197784 0 1 0
5.8049 2.370001 -3.197299 0 1 0
5.8799 2.403338 -3.198755 0 1 0
5.9549 2.41445 -3.19924 0 0 1
5.7299 2.381113 -3.197784 0 0 0.9999999
5.8049 2.392226 -3.19827 0 0 1
5.8049 2.41445 -3.19924 0 0 1
5.8049 2.403338 -3.198755 0 0 1
5.7299 2.403338 -3.198755 0 0 1
5.9549 2.852589 -3.871122 0 0 1
5.8799 2.852589 -3.871122 0 0 1
5.9549 2.849244 -3.88173 0 0 1
5.7299 2.859279 -3.849905 0 0 1
5.8049 2.855934 -3.860514 0 0 1
5.8049 2.859279 -3.849905 0 0 1
5.8049 2.849244 -3.88173 0 0 1
5.8049 2.852589 -3.871122 0 0 1
5.7299 2.852589 -3.871122 0 0 1
6.0299 2.852589 -3.871122 0 0 1
5.9549 2.855934 -3.860514 0 0 1
5.9549 2.859279 -3.849905 0 0 1
6.0299 2.859279 -3.849905 0 0 1
5.8799 2.859279 -3.849905 0 0 0.9999999
5.9549 2.447534 -3.203595 0 0 1
5.8799 2.447534 -3.203595 0 0 1
5.9549 2.458561 -3.205047 0 0 1
5.7299 2.425478 -3.200692 0 0 1
5.8049 2.436506 -3.202143 0 0 1
5.8049 2.425478 -3.200692 0 0 1
5.8049 2.458561 -3.205047 0 0 1
5.8049 2.447534 -3.203595 0 0 1
5.7299 2.447534 -3.203595 0 0 1
6.0299 2.447534 -3.203595 0 0 1
5.9549 2.436506 -3.202143 0 0 1
5.9549 2.425478 -3.200692 0 0 1
6.0299 2.425478 -3.200692 0 0 1
5.8799 2.425478 -3.200692 0 0 1
5.9549 2.836475 -3.912559 0 0 1
5.8799 2.836475 -3.912559 0 0 1
5.9549 2.832218 -3.922835 0 0 1
5.7299 2.844988 -3.892006 0 0 1
5.8049 2.840731 -3.902283 0 0 1
5.8049 2.844988 -3.892006 0 0 1
5.8049 2.832218 -3.922835 0 0 1
5.8049 2.836475 -3.912559 0 0 0.9999999
5.7299 2.836475 -3.912559 0 0 1
6.0299 2.836475 -3.912559 0 0 1
5.9549 2.840731 -3.902283 0 0 1
5.9549 2.844988 -3.892006 0 0 1
6.0299 2.844988 -3.892006 0 0 1
5.8799 2.844988 -3.892006 0 0 0.9999999
5.9549 2.491139 -3.21227 0 0 0.9999999
5.8799 2.491139 -3.21227 0 0 1
5.9549 2.501999 -3.214677 0 0 1
5.7299 2.469421 -3.207454 0 0 1
5.8049 2.48028 -3.209862 0 0 1
5.8049 2.469421 -3.207454 0 0 1
5.8049 2.501999 -3.214677 0 0 0.9999999
5.8049 2.491139 -3.21227 0 0 1
5.7299 2.491139 -3.21227 0 0 1
6.0299 2.491139 -3.21227 0 0 1
5.9549 2.48028 -3.209862 0 0 0.9999999
5.9549 2.469421 -3.207454 0 0 0.9999999
6.0299 2.469421 -3.207454 0 0 1
5.8799 2.469421 -3.207454 0 0 0.9999999
5.9549 2.81681 -3.952433 0 0 1
5.8799 2.81681 -3.952433 0 0 1
5.9549 2.811674 -3.9623 0 0 1
5.7299 2.827082 -3.932701 0 0 1
5.8049 2.821946 -3.942567 0 0 1
5.8049 2.827082 -3.932701 0 0 1
5.8049 2.811674 -3.9623 0 0 0.9999999
5.8049 2.81681 -3.952433 0 0 1
5.7299 2.81681 -3.952433 0 0 1
6.0299 2.81681 -3.952433 0 0 1
5.9549 2.821946 -3.942567 0 0 1
5.9549 2.827082 -3.932701 0 0 1
6.0299 2.827082 -3.932701 0 0 0.9999999
5.8799 2.827082 -3.932701 0 0 1
5.9549 2.533823 -3.224711 0 0 0.9999999
5.8799 2.533823 -3.224711 0 0 1
5.9549 2.544431 -3.228056 0 0 1
5.7299 2.512607 -3.218022 0 0 1
5.8049 2.523215 -3.221367 0 0 0.9999999
5.8049 2.512607 -3.218022 0 0 1
5.8049 2.544431 -3.228056 0 0 1
5.8049 2.533823 -3.224711 0 0 0.9999999
5.7299 2.533823 -3.224711 0 0 1
6.0299 2.533823 -3.224711 0 0 1
5.9549 2.523215 -3.221367 0 0 1
5.9549 2.512607 -3.218022 0 0 1
6.0299 2.512607 -3.218022 0 0 0.9999999
5.8799 2.512607 -3.218022 0 0 1
5.9549 2.793745 -3.990443 0 0 1
5.8799 2.793745 -3.990443 0 0 1
5.9549 2.787769 -3.999824 0 0 1
5.7299 2.805698 -3.971681 0 0 1
5.8049 2.799721 -3.981062 0 0 1
5.8049 2.805698 -3.971681 0 0 1
5.8049 2.787769 -3.999824 0 0 1
5.8049 2.793745 -3.990443 0 0 1
5.7299 2.793745 -3.990443 0 0 1
6.0299 2.793745 -3.990443 0 0 1
5.9549 2.799721 -3.981062 0 0 1
5.9549 2.805698 -3.971681 0 0 1
6.0299 2.805698 -3.971681 0 0 1
5.8799 2.805698 -3.971681 0 0 1
5.9549 2.57526 -3.240825 0 0 1
5.8799 2.57526 -3.240825 0 0 1
5.9549 2.585536 -3.245082 0 0 1
5.7299 2.554708 -3.232312 0 0 1
5.8049 2.564984 -3.236569 0 0 1
5.8049 2.554708 -3.232312 0 0 1
5.8049 2.585536 -3.245082 0 0 1
5.8049 2.57526 -3.240825 0 0 1
5.7299 2.57526 -3.240825 0 0 1
6.0299 2.57526 -3.240825 0 0 1
5.9549 2.564984 -3.236569 0 0 1
5.9549 2.554708 -3.232312 0 0 0.9999999
6.0299 2.554708 -3.232312 0 0 1
5.8799 2.554708 -3.232312 0 0 1
5.9549 2.767455 -4.026297 0 0 1
5.8799 2.767455 -4.026297 0 0 1
5.9549 2.760684 -4.035121 0 0 1
5.7299 2.780998 -4.008648 0 0 1
5.8049 2.774226 -4.017472 0 0 1
5.8049 2.780998 -4.008648 0 0 1
5.8049 2.760684 -4.035121 0 0 1
5.8049 2.767455 -4.026297 0 0 1
5.7299 2.767455 -4.026297 0 0 1
6.0299 2.615135 -3.260491 0 0 1
5.9549 2.605268 -3.255355 0 0 1
5.9549 2.615135 -3.260491 0 0 0.9999999
5.9549 2.595402 -3.250219 0 0 1
6.0299 2.595402 -3.250219 0 0 1
5.8049 2.595402 -3.250219 0 0 1
5.8799 2.595402 -3.250219 0 0 1
6.0299 2.767455 -4.026297 0 0 1
5.9549 2.774226 -4.017472 0 0 1
5.9549 2.780998 -4.008648 0 0 1
6.0299 2.780998 -4.008648 0 0 1
5.8799 2.780998 -4.008648 0 0 0.9999999
5.8799 2.615135 -3.260491 0 0 1
5.9549 2.625001 -3.265627 0 0 1
5.7299 2.595402 -3.250219 0 0 1
5.8049 2.605268 -3.255355 0 0 1
5.8049 2.625001 -3.265627 0 0 1
5.8049 2.615135 -3.260491 0 0 1
5.7299 2.615135 -3.260491 0 0 1
5.9549 2.73814 -4.059724 0 0 1
5.8799 2.73814 -4.059724 0 0 1
5.9549 2.730625 -4.067924 0 0 0.9999999
5.7299 2.753169 -4.043322 0 0 0.9999999
5.8049 2.745655 -4.051523 0 0 1
5.8049 2.753169 -4.043322 0 0 1
5.8049 2.730625 -4.067924 0 0 0.9999999
5.8049 2.73814 -4.059724 0 0 1
5.7299 2.73814 -4.059724 0 0 1
6.0299 2.73814 -4.059724 0 0 1
5.9549 2.745655 -4.051523 0 0 0.9999999
5.9549 2.753169 -4.043322 0 0 1
6.0299 2.753169 -4.043322 0 0 0.9999999
5.8799 2.753169 -4.043322 0 0 1
6.0299 2.653144 -3.283556 0 0 1
5.9549 2.643763 -3.277579 0 0 0.9999999
5.9549 2.653144 -3.283556 0 0 0.9999999
5.9549 2.634382 -3.271603 0 0 1
6.0299 2.634382 -3.271603 0 0 1
5.8049 2.634382 -3.271603 0 0 1
5.8799 2.634382 -3.271603 0 0 1
5.8799 2.653144 -3.283556 0 0 1
5.9549 2.662525 -3.289532 0 0 1
5.7299 2.634382 -3.271603 0 0 0.9999999
5.8049 2.643763 -3.277579 0 0 1
5.8049 2.662525 -3.289532 0 0 1
5.8049 2.653144 -3.283556 0 0 0.9999999
5.7299 2.653144 -3.283556 0 0 0.9999999
5.9549 2.706023 -4.090468 0 0 1
5.8799 2.706023 -4.090468 0 0 1
5.9549 2.697823 -4.097982 0 0 1
5.7299 2.722425 -4.075439 0 0 1
5.8049 2.714224 -4.082953 0 0 1
5.8049 2.722425 -4.075439 0 0 1
5.8049 2.697823 -4.097982 0 0 1
5.8049 2.706023 -4.090468 0 0 1
5.7299 2.706023 -4.090468 0 0 1
6.0299 2.706023 -4.090468 0 0 1
5.9549 2.714224 -4.082953 0 0 1
5.9549 2.722425 -4.075439 0 0 1
6.0299 2.722425 -4.075439 0 0 1
5.8799 2.722425 -4.075439 0 0 0.9999999
5.9549 2.688998 -3.309846 0 0 1
5.8799 2.688998 -3.309846 0 0 0.9999999
5.9549 2.697823 -3.316617 0 0 1
5.7299 2.67135 -3.296303 0 0 1
5.8049 2.680174 -3.303075 0 0 1
5.8049 2.67135 -3.296303 0 0 1
5.8049 2.697823 -3.316617 0 0 1
5.8049 2.688998 -3.309846 0 0 1
5.7299 2.688998 -3.309846 0 0 1
6.0299 2.688998 -3.309846 0 0 1
5.9549 2.680174 -3.303075 0 0 1
5.9549 2.67135 -3.296303 0 0 0.9999999
6.0299 2.67135 -3.296303 0 0 1
5.8799 2.67135 -3.296303 0 0 1
5.9549 2.67135 -4.118296 0 0 1
5.8799 2.67135 -4.118296 0 0 1
5.9549 2.662525 -4.125067 0 0 0.9999999
5.7299 2.688998 -4.104753 0 0 1
5.8049 2.680174 -4.111525 0 0 1
5.8049 2.688998 -4.104753 0 0 1
5.8049 2.662525 -4.125067 0 0 1
5.8049 2.67135 -4.118296 0 0 0.9999999
5.7299 2.67135 -4.118296 0 0 1
6.0299 2.67135 -4.118296 0 0 1
5.9549 2.680174 -4.111525 0 0 1
5.9549 2.688998 -4.104753 0 0 1
6.0299 2.688998 -4.104753 0 0 1
5.8799 2.688998 -4.104753 0 0 1
5.9549 2.722425 -3.33916 0 0 1
5.8799 2.722425 -3.33916 0 0 1
5.9549 2.730625 -3.346675 0 0 1
5.7299 2.706023 -3.324131 0 0 1
5.8049 2.714224 -3.331646 0 0 1
5.8049 2.706023 -3.324131 0 0 1
5.8049 2.730625 -3.346675 0 0 1
5.8049 2.722425 -3.33916 0 0 1
5.7299 2.722425 -3.33916 0 0 1
6.0299 2.722425 -3.33916 0 0 1
5.9549 2.714224 -3.331646 0 0 1
5.9549 2.706023 -3.324131 0 0 1
6.0299 2.706023 -3.324131 0 0 1
5.8799 2.706023 -3.324131 0 0 1
5.9549 2.634382 -4.142997 0 0 0.9999999
5.8799 2.634382 -4.142997 0 0 1
5.9549 2.625001 -4.148973 0 0 1
5.7299 2.653144 -4.131043 0 0 1
5.8049 2.643763 -4.13702 0 0 1
5.8049 2.653144 -4.131043 0 0 1
5.8049 2.625001 -4.148973 0 0 1
5.8049 2.634382 -4.142997 0 0 1
5.7299 2.634382 -4.142997 0 0 1
6.0299 2.634382 -4.142997 0 0 1
5.9549 2.643763 -4.13702 0 0 1
5.9549 2.653144 -4.131043 0 0 1
6.0299 2.653144 -4.131043 0 0 1
5.8799 2.653144 -4.131043 0 0 1
5.9549 2.753169 -3.371277 0 0 1
5.8799 2.753169 -3.371277 0 0 1
5.9549 2.760684 -3.379478 0 0 1
5.7299 2.73814 -3.354875 0 0 1
5.8049 2.745655 -3.363076 0 0 -1
5.8049 2.73814 -3.354875 0 0 -1
5.8049 2.760684 -3.379478 0 0 -1
5.8049 2.753169 -3.371277 0 0 -1
5.7299 2.753169 -3.371277 0 0 -0.9999999
6.0299 2.753169 -3.371277 0 0 -0.9999999
5.9549 2.745655 -3.363076 0 0 -1
5.9549 2.73814 -3.354875 0 0 -0.9999999
6.0299 2.73814 -3.354875 0 0 -1
5.8799 2.73814 -3.354875 0 0 -1
5.9549 2.595402 -4.164381 0 0 -1
5.8799 2.595402 -4.164381 0 0 -1
5.9549 2.585536 -4.169517 0 0 -1
5.7299 2.615135 -4.154109 0 0 -1
5.8049 2.605268 -4.159245 0 0 -1
5.8049 2.615135 -4.154109 0 0 -0.9999999
5.8049 2.585536 -4.169517 0 0 -1
5.8049 2.595402 -4.164381 0 0 -1
5.7299 2.595402 -4.164381 0 0 -1
5.9549 2.780998 -3.405951 0 0 -0.9999999
5.8799 2.780998 -3.405951 0 0 -1
5.9549 2.787769 -3.414775 0 0 -1
5.7299 2.767455 -3.388302 0 0 -1
5.8049 2.774226 -3.397127 0 0 -1
5.8049 2.767455 -3.388302 0 0 -1
5.8049 2.787769 -3.414775 0 0 -1
5.8049 2.780998 -3.405951 0 0 -1
5.7299 2.780998 -3.405951 0 0 -1
6.0299 2.595402 -4.164381 0 0 -1
5.9549 2.605268 -4.159245 0 0 -1
5.9549 2.615135 -4.154109 0 0 -1
6.0299 2.615135 -4.154109 0 0 -1
5.8799 2.615135 -4.154109 0 0 -1
6.0299 2.780998 -3.405951 0 0 -1
5.9549 2.774226 -3.397127 0 0 -1
5.9549 2.767455 -3.388302 0 0 -1
6.0299 2.767455 -3.388302 0 0 -1
5.8799 2.767455 -3.388302 0 0 -1
6.0299 2.554708 -4.182286 0 0 -1
5.9549 2.564984 -4.17803 0 0 -0.9999999
5.9549 2.554708 -4.182286 0 0 -1
5.9549 2.57526 -4.173774 0 0 -1
6.0299 2.57526 -4.173774 0 0 -1
5.8049 2.57526 -4.173774 0 0 -0.9999999
5.8799 2.57526 -4.173774 0 0 -1
5.9549 2.805698 -3.442918 0 0 -1
5.8799 2.805698 -3.442918 0 0 -1
5.9549 2.811674 -3.452299 0 0 -1
5.7299 2.793745 -3.424156 0 0 -1
5.8049 2.799721 -3.433537 0 0 -1
5.8049 2.793745 -3.424156 0 0 -1
5.8049 2.811674 -3.452299 0 0 -1
5.8049 2.805698 -3.442918 0 0 -1
5.7299 2.805698 -3.442918 0 0 -1
5.8799 2.554708 -4.182286 0 0 -1
5.9549 2.544431 -4.186543 0 0 -1
5.7299 2.57526 -4.173774 0 0 -1
5.8049 2.564984 -4.17803 0 0 -1
5.8049 2.544431 -4.186543 0 0 -1
5.8049 2.554708 -4.182286 0 0 -1
5.7299 2.554708 -4.182286 0 0 -1
6.0299 2.805698 -3.442918 0 0 -1
5.9549 2.799721 -3.433537 0 0 -1
5.9549 2.793745 -3.424156 0 0 -0.9999999
6.0299 2.793745 -3.424156 0 0 -0.9999999
5.8799 2.793745 -3.424156 0 0 -1
6.0299 2.512607 -4.196577 0 0 -0.9999999
5.9549 2.523215 -4.193233 0 0 -1
5.9549 2.512607 -4.196577 0 0 -0.9999999
5.9549 2.533823 -4.189888 0 0 -1
6.0299 2.533823 -4.189888 0 0 -0.9999999
5.8049 2.533823 -4.189888 0 0 -1
5.8799 2.533823 -4.189888 0 0 -1
5.8799 2.512607 -4.196577 0 0 -1
5.9549 2.501999 -4.199922 0 0 -1
5.7299 2.533823 -4.189888 0 0 -1
5.8049 2.523215 -4.193233 0 0 -1
5.8049 2.501999 -4.199922 0 0 -1
5.8049 2.512607 -4.196577 0 0 -1
5.7299 2.512607 -4.196577 0 0 -1
5.9549 2.827082 -3.481898 0 0 -1
5.8799 2.827082 -3.481898 0 0 -1
5.9549 2.832218 -3.491764 0 0 -1
5.7299 2.81681 -3.462165 0 0 -1
5.8049 2.821946 -3.472031 0 0 -1
5.8049 2.81681 -3.462165 0 0 -1
5.8049 2.832218 -3.491764 0 0 -1
5.8049 2.827082 -3.481898 0 0 -1
5.7299 2.827082 -3.481898 0 0 -1
6.0299 2.827082 -3.481898 0 0 -1
5.9549 2.821946 -3.472031 0 0 -1
5.9549 2.81681 -3.462165 0 0 -1
6.0299 2.81681 -3.462165 0 0 -1
5.8799 2.81681 -3.462165 0 0 -1
6.0299 2.469421 -4.207144 0 0 -1
5.9549 2.48028 -4.204737 0 0 -0.9999999
5.9549 2.469421 -4.207144 0 0 -1
5.9549 2.491139 -4.20233 0 0 -1
6.0299 2.491139 -4.20233 0 0 -1
5.8049 2.491139 -4.20233 0 0 -1
5.8799 2.491139 -4.20233 0 0 -1
5.8799 2.469421 -4.207144 0 0 -1
5.9549 2.458561 -4.209552 0 0 -1
5.7299 2.491139 -4.20233 0 0 -1
5.8049 2.48028 -4.204737 0 0 -0.9999999
5.8049 2.458561 -4.209552 0 0 -1
5.8049 2.469421 -4.207144 0 0 -1
5.7299 2.469421 -4.207144 0 0 -1
5.9549 2.844988 -3.522593 0 0 -1
5.8799 2.844988 -3.522593 0 0 -0.9999999
5.9549 2.849244 -3.532869 0 0 -1
5.7299 2.836475 -3.50204 0 0 -1
5.8049 2.840731 -3.512317 0 0 -1
5.8049 2.836475 -3.50204 0 0 -1
5.8049 2.849244 -3.532869 0 0 -1
5.8049 2.844988 -3.522593 0 0 -1
5.7299 2.844988 -3.522593 0 0 -1
6.0299 2.844988 -3.522593 0 0 -1
5.9549 2.840731 -3.512317 0 0 -1
5.9549 2.836475 -3.50204 0 0 -1
6.0299 2.836475 -3.50204 0 0 -1
5.8799 2.836475 -3.50204 0 0 -1
6.0299 2.425478 -4.213907 0 0 -1
5.9549 2.436506 -4.212456 0 0 -1
5.9549 2.425478 -4.213907 0 0 -1
5.9549 2.447534 -4.211003 0 0 -1
6.0299 2.447534 -4.211003 0 0 -1
5.8049 2.447534 -4.211003 0 0 -1
5.8799 2.447534 -4.211003 0 0 -1
5.8799 2.425478 -4.213907 0 0 -1
5.9549 2.41445 -4.215359 0 0 -1
5.7299 2.447534 -4.211003 0 0 -1
5.8049 2.436506 -4.212456 0 0 -1
5.8049 2.41445 -4.215359 0 0 -1
5.8049 2.425478 -4.213907 0 0 -1
5.7299 2.425478 -4.213907 0 0 -1
5.9549 2.859279 -3.564693 0 0 -1
5.8799 2.859279 -3.564693 0 0 -1
5.9549 2.862623 -3.575302 0 0 -1
5.7299 2.852589 -3.543477 0 0 -0.9999999
5.8049 2.855934 -3.554086 0 0 -1
5.8049 2.852589 -3.543477 0 0 -1
5.8049 2.862623 -3.575302 0 0 -1
5.8049 2.859279 -3.564693 0 0 -0.9999999
5.7299 2.859279 -3.564693 0 0 -1
6.0299 2.859279 -3.564693 0 0 -1
5.9549 2.855934 -3.554086 0 0 -1
5.9549 2.852589 -3.543477 0 0 -1
6.0299 2.852589 -3.543477 0 0 -1
5.8799 2.852589 -3.543477 0 0 -1
6.0299 2.381113 -4.216815 0 0 -1
5.9549 2.392226 -4.21633 0 0 -1
5.9549 2.381113 -4.216815 0 0 -1
5.9549 2.403338 -4.215844 0 0 -1
6.0299 2.403338 -4.215844 0 0 -1
5.8049 2.403338 -4.215844 0 0 -1
5.8799 2.403338 -4.215844 0 0 -1
5.8799 2.381113 -4.216815 0 0 -1
5.9549 2.370001 -4.217299 0 0 -1
5.7299 2.403338 -4.215844 0 0 -1
5.8049 2.392226 -4.21633 0 0 -1
5.8049 2.370001 -4.217299 0 0 -1
5.8049 2.381113 -4.216815 0 0 -1
5.7299 2.381113 -4.216815 0 0 -1
5.9549 2.869846 -3.60788 0 0 -1
5.8799 2.869846 -3.60788 0 0 -1
5.9549 2.872253 -3.618739 0 0 -1
5.7299 2.865031 -3.586161 0 0 -1
5.8049 2.867438 -3.59702 0 0 -1
5.8049 2.865031 -3.586161 0 0 -1
5.8049 2.872253 -3.618739 0 0 -1
5.8049 2.869846 -3.60788 0 0 -1
5.7299 2.869846 -3.60788 0 0 -1
6.0299 2.869846 -3.60788 0 0 -1
5.9549 2.867438 -3.59702 0 0 -1
5.9549 2.865031 -3.586161 0 0 -1
6.0299 2.865031 -3.586161 0 0 -1
5.8799 2.865031 -3.586161 0 0 -1
5.9549 2.876609 -3.651822 0 0 -1
5.8799 2.876609 -3.651822 0 0 -1
5.9549 2.878061 -3.66285 0 0 -1
5.7299 2.873705 -3.629766 0 0 -1
5.8049 2.875157 -3.640794 0 0 -1
5.8049 2.873705 -3.629766 0 0 -1
5.8049 2.878061 -3.66285 0 0 -1
5.8049 2.876609 -3.651822 0 0 -1
5.7299 2.876609 -3.651822 0 0 -1
6.0299 2.876609 -3.651822 0 0 -1
5.9549 2.875157 -3.640794 0 0 -1
5.9549 2.873705 -3.629766 0 0 -1
6.0299 2.873705 -3.629766 0 0 -1
5.8799 2.873705 -3.629766 0 0 -1
5.9549 2.879516 -3.696187 0 0 -1
5.8799 2.879516 -3.696187 0 0 -1
5.7299 2.878546 -3.673962 0 0 -0.9999999
5.8049 2.879031 -3.685075 0 0 -1
5.8049 2.878546 -3.673962 0 0 -1
5.8049 2.879516 -3.696187 0 0 -1
5.7299 2.879516 -3.696187 0 0 -0.9999999
6.0299 2.879516 -3.696187 0 0 -1
5.9549 2.879031 -3.685075 0 0 -0.9999999
5.9549 2.878546 -3.673962 0 0 -1
6.0299 2.878546 -3.673962 0 0 -1
5.8799 2.878546 -3.673962 0 0 -1
5.8799 2.878546 -3.740637 0 0 -1
5.7299 2.879516 -3.718412 0 0 -1
5.8049 2.879031 -3.729524 0 0 -1
5.8049 2.878546 -3.740637 0 0 -1
5.7299 2.878546 -3.740637 0 0 -1
6.0299 1.29 -4.2173 0 0 -1
5.9549 1.650001 -4.217299 0 0 -1
5.9549 1.29 -4.2173 0 0 -0.9999999
5.9549 2.370001 -4.217299 0 0 -1
5.9549 2.010001 -4.217299 0 0 -1
6.0299 2.010001 -4.217299 0 0 -1
5.8049 2.010001 -4.217299 0 0 -1
5.8799 2.010001 -4.217299 0 0 -1
5.8049 2.370001 -4.217299 0 0 -1
5.8799 1.29 -4.2173 0 0 -1
5.9549 0.9300001 -4.2173 0 0 -0.9999999
5.7299 2.010001 -4.217299 0 0 -1
5.8049 1.650001 -4.217299 0 0 -1
5.8049 0.9300001 -4.2173 0 0 -1
5.8049 1.29 -4.2173 0 0 -1
5.7299 1.29 -4.2173 0 0 -1
6.0299 0.9300001 -3.452299 0 0 -1
5.9549 0.9300001 -3.707299 0 0 -0.9999999
5.9549 0.9300001 -3.452299 0 0 -1
5.9549 0.9300001 -4.2173 0 0 -0.9999999
5.9549 0.9300001 -3.9623 0 0 -1
6.0299 0.9300001 -3.9623 0 0 -1
5.8049 0.9300001 -3.9623 0 0 -1
5.8799 0.9300001 -3.9623 0 0 -1
5.8049 0.9300001 -4.2173 0 0 -1
5.8799 0.9300001 -3.452299 0 0 -0.9999999
5.9549 0.9300001 -3.197299 0 0 -1
5.7299 0.9300001 -3.9623 0 0 -1
5.8049 0.9300001 -3.707299 0 0 -1
5.8049 0.9300001 -3.197299 0 0 -1
5.8049 0.9300001 -3.452299 0 0 -0.9999999
5.7299 0.9300001 -3.452299 0 0 -1
6.0299 1.990001 -0.5172975 0 0 -1
5.9549 1.630001 -0.5172975 0 0 -1
5.9549 1.990001 -0.5172975 0 0 -1
5.9549 0.9100005 -0.5172974 0 0 -1
5.9549 1.270001 -0.5172974 0 0 -1
6.0299 1.270001 -0.5172974 0 0 -1
5.8049 1.270001 -0.5172974 0 0 -1
5.8799 1.270001 -0.5172974 0 0 -1
5.8049 0.9100005 -0.5172974 0 0 -1
5.8799 1.990001 -0.5172975 0 0 -1
5.9549 2.350001 -0.5172975 0 0 -1
5.7299 1.270001 -0.5172974 0 0 -1
5.8049 1.630001 -0.5172975 0 0 -1
5.8049 2.350001 -0.5172975 0 0 -1
5.8049 1.990001 -0.5172975 0 0 -1
5.7299 1.990001 -0.5172975 0 0 -1
6.0299 2.858546 -1.060635 0 0 -1
5.9549 2.859031 -1.049522 0 0 -1
5.9549 2.858546 -1.060635 0 0 -1
5.9549 2.860002 -1.027298 0 0 -1
5.9549 2.859517 -1.03841 0 0 -0.9999999
6.0299 2.859517 -1.03841 0 0 -1
5.8049 2.859517 -1.03841 0 0 -1
5.8799 2.859517 -1.03841 0 0 -0.9999999
5.8049 2.860002 -1.027298 0 0 -1
5.9549 2.853705 -1.104831 0 0 -1
5.8799 2.853705 -1.104831 0 0 -0.9999999
5.9549 2.852253 -1.115859 0 0 -1
5.7299 2.856609 -1.082775 0 0 -1
5.8049 2.855157 -1.093803 0 0 -1
5.8049 2.856609 -1.082775 0 0 -1
5.8049 2.852253 -1.115859 0 0 -1
5.8049 2.853705 -1.104831 0 0 -1
5.7299 2.853705 -1.104831 0 0 -1
6.0299 2.853705 -1.104831 0 0 -1
5.9549 2.855157 -1.093803 0 0 -1
5.9549 2.858061 -1.071747 0 0 -0.9999999
5.9549 2.856609 -1.082775 0 0 -0.9999999
6.0299 2.856609 -1.082775 0 0 -0.9999999
5.8799 2.856609 -1.082775 0 0 -0.9999999
5.8049 2.858061 -1.071747 0 0 -1
5.9549 2.845031 -1.148436 0 0 -1
5.8799 2.845031 -1.148436 0 0 -0.9999999
5.9549 2.842624 -1.159296 0 0 -0.9999999
5.7299 2.849846 -1.126718 0 0 -1
5.8049 2.847439 -1.137577 0 0 -1
5.8049 2.849846 -1.126718 0 0 -1
5.8049 2.842624 -1.159296 0 0 -1
5.8049 2.845031 -1.148436 0 0 -1
5.7299 2.845031 -1.148436 0 0 -1
6.0299 2.845031 -1.148436 0 0 -1
5.9549 2.847439 -1.137577 0 0 -1
5.9549 2.849846 -1.126718 0 0 -1
6.0299 2.849846 -1.126718 0 0 -0.9999999
5.8799 2.849846 -1.126718 0 0 -1
6.0299 2.383338 -0.5187531 0 0 -0.9999999
5.9549 2.372226 -0.5182679 0 0 -0.9999999
5.9549 2.383338 -0.5187531 0 0 -1
5.9549 2.350001 -0.5172975 0 0 -1
5.9549 2.361114 -0.5177827 0 0 -1
6.0299 2.361114 -0.5177827 0 0 -1
5.8049 2.361114 -0.5177827 0 0 -0.9999999
5.8799 2.361114 -0.5177827 0 0 -1
5.8049 2.350001 -0.5172975 0 0 -1
5.8799 2.383338 -0.5187531 0 0 -0.9999999
5.9549 2.394451 -0.5192382 0 0 -1
5.7299 2.361114 -0.5177827 0 0 -1
5.8049 2.372226 -0.5182679 0 0 -1
5.8049 2.394451 -0.5192382 0 0 -1
5.8049 2.383338 -0.5187531 0 0 -1
5.7299 2.383338 -0.5187531 0 0 -1
5.9549 2.83259 -1.19112 0 0 -1
5.8799 2.83259 -1.19112 0 0 -1
5.9549 2.829245 -1.201728 0 0 -1
5.7299 2.839279 -1.169904 0 0 -1
5.8049 2.835934 -1.180512 0 0 -1
5.8049 2.839279 -1.169904 0 0 -1
5.8049 2.829245 -1.201728 0 0 -1
5.8049 2.83259 -1.19112 0 0 -1
5.7299 2.83259 -1.19112 0 0 -0.9999999
6.0299 2.83259 -1.19112 0 0 -0.9999999
5.9549 2.835934 -1.180512 0 0 -0.9999999
5.9549 2.839279 -1.169904 0 0 -0.9999999
6.0299 2.839279 -1.169904 0 0 -1
5.8799 2.839279 -1.169904 0 0 -0.9999999
5.9549 2.427534 -0.5235937 0 0 -0.9999999
5.8799 2.427534 -0.5235937 0 0 -0.9999999
5.9549 2.438562 -0.5250456 0 0 -1
5.7299 2.405478 -0.52069 0 0 -1
5.8049 2.416506 -0.5221419 0 0 -1
5.8049 2.405478 -0.52069 0 0 -1
5.8049 2.438562 -0.5250456 0 0 -1
5.8049 2.427534 -0.5235937 0 0 -1
5.7299 2.427534 -0.5235937 0 0 -1
6.0299 2.427534 -0.5235937 0 0 -1
5.9549 2.416506 -0.5221419 0 0 -1
5.9549 2.405478 -0.52069 0 0 -1
6.0299 2.405478 -0.52069 0 0 -0.9999999
5.8799 2.405478 -0.52069 0 0 -1
5.9549 2.816475 -1.232557 0 0 -1
5.8799 2.816475 -1.232557 0 0 -0.9999999
5.9549 2.812219 -1.242833 0 0 -0.9999999
5.7299 2.824988 -1.212004 0 0 -1
5.8049 2.820732 -1.222281 0 0 -1
5.8049 2.824988 -1.212004 0 0 -1
5.8049 2.812219 -1.242833 0 0 -1
5.8049 2.816475 -1.232557 0 0 -1
5.7299 2.816475 -1.232557 0 0 -0.9999999
6.0299 2.816475 -1.232557 0 0 -1
5.9549 2.820732 -1.222281 0 0 -1
5.9549 2.824988 -1.212004 0 0 -0.9999999
6.0299 2.824988 -1.212004 0 0 -1
5.8799 2.824988 -1.212004 0 0 -1
5.9549 2.47114 -0.5322678 0 0 -1
5.8799 2.47114 -0.5322678 0 0 -1
5.9549 2.481999 -0.5346754 0 0 -1
5.7299 2.449421 -0.5274529 0 0 -1
5.8049 2.46028 -0.5298605 0 0 -0.9999999
5.8049 2.449421 -0.5274529 0 0 -1
5.8049 2.481999 -0.5346754 0 0 -0.9999999
5.8049 2.47114 -0.5322678 0 0 -1
5.7299 2.47114 -0.5322678 0 0 -1
6.0299 2.47114 -0.5322678 0 0 -1
5.9549 2.46028 -0.5298605 0 0 -1
5.9549 2.449421 -0.5274529 0 0 -1
6.0299 2.449421 -0.5274529 0 0 -1
5.8799 2.449421 -0.5274529 0 0 -1
5.9549 2.796811 -1.272432 0 0 -1
5.8799 2.796811 -1.272432 0 0 -1
5.9549 2.791675 -1.282298 0 0 -1
5.7299 2.807083 -1.2527 0 0 -0.9999999
5.8049 2.801947 -1.262566 0 0 -1
5.8049 2.807083 -1.2527 0 0 -1
5.8049 2.791675 -1.282298 0 0 -1
5.8049 2.796811 -1.272432 0 0 -1
5.7299 2.796811 -1.272432 0 0 -1
6.0299 2.796811 -1.272432 0 0 -1
5.9549 2.801947 -1.262566 0 0 -0.9999999
5.9549 2.807083 -1.2527 0 0 -1
6.0299 2.807083 -1.2527 0 0 -1
5.8799 2.807083 -1.2527 0 0 -1
5.9549 2.513824 -0.5447097 0 0 -1
5.8799 2.513824 -0.5447097 0 0 -0.9999999
5.9549 2.524432 -0.5480545 0 0 -1
5.7299 2.492607 -0.5380201 0 0 -0.9999999
5.8049 2.503215 -0.5413649 0 0 -1
5.8049 2.492607 -0.5380201 0 0 -1
5.8049 2.524432 -0.5480545 0 0 -1
5.8049 2.513824 -0.5447097 0 0 -1
5.7299 2.513824 -0.5447097 0 0 -1
6.0299 2.513824 -0.5447097 0 0 -1
5.9549 2.503215 -0.5413649 0 0 -1
5.9549 2.492607 -0.5380201 0 0 -1
6.0299 2.492607 -0.5380201 0 0 -1
5.8799 2.492607 -0.5380201 0 0 -1
5.9549 2.773746 -1.310441 0 0 -1
5.8799 2.773746 -1.310441 0 0 -1
5.9549 2.767769 -1.319822 0 0 -1
5.7299 2.785698 -1.291679 0 0 -1
5.8049 2.779722 -1.30106 0 0 -1
5.8049 2.785698 -1.291679 0 0 -1
5.8049 2.767769 -1.319822 0 0 -1
5.8049 2.773746 -1.310441 0 0 -1
5.7299 2.773746 -1.310441 0 0 -1
6.0299 2.773746 -1.310441 0 0 -1
5.9549 2.779722 -1.30106 0 0 -1
5.9549 2.785698 -1.291679 0 0 -1
6.0299 2.785698 -1.291679 0 0 -1
5.8799 2.785698 -1.291679 0 0 -1
5.9549 2.555261 -0.5608242 0 0 -1
5.8799 2.555261 -0.5608242 0 0 -1
5.9549 2.565537 -0.5650806 0 0 -1
5.7299 2.534708 -0.5523109 0 0 -1
5.8049 2.544984 -0.5565674 0 0 -1
5.8049 2.534708 -0.5523109 0 0 -1
5.8049 2.565537 -0.5650806 0 0 -1
5.8049 2.555261 -0.5608242 0 0 -1
5.7299 2.555261 -0.5608242 0 0 -1
6.0299 2.555261 -0.5608242 0 0 -1
5.9549 2.544984 -0.5565674 0 0 -1
5.9549 2.534708 -0.5523109 0 0 -1
6.0299 2.534708 -0.5523109 0 0 -1
5.8799 2.534708 -0.5523109 0 0 -1
5.9549 2.747455 -1.346295 0 0 -1
5.8799 2.747455 -1.346295 0 0 -1
5.9549 2.740684 -1.355119 0 0 -0.9999999
5.7299 2.760998 -1.328647 0 0 -1
5.8049 2.754227 -1.337471 0 0 -1
5.8049 2.760998 -1.328647 0 0 -1
5.8049 2.740684 -1.355119 0 0 -0.9999999
5.8049 2.747455 -1.346295 0 0 -1
5.7299 2.747455 -1.346295 0 0 -1
6.0299 2.595135 -0.5804887 0 0 -1
5.9549 2.585269 -0.5753527 0 0 -0.9999999
5.9549 2.595135 -0.5804887 0 0 -1
5.9549 2.575403 -0.5702167 0 0 -1
6.0299 2.575403 -0.5702167 0 0 -1
5.8049 2.575403 -0.5702167 0 0 -1
5.8799 2.575403 -0.5702167 0 0 -1
6.0299 2.747455 -1.346295 0 0 -1
5.9549 2.754227 -1.337471 0 0 -1
5.9549 2.760998 -1.328647 0 0 -1
6.0299 2.760998 -1.328647 0 0 -1
5.8799 2.760998 -1.328647 0 0 -1
5.8799 2.595135 -0.5804887 0 0 -1
5.9549 2.605001 -0.5856247 0 0 -1
5.7299 2.575403 -0.5702167 0 0 -1
5.8049 2.585269 -0.5753527 0 0 -1
5.8049 2.605001 -0.5856247 0 0 -1
5.8049 2.595135 -0.5804887 0 0 -1
5.7299 2.595135 -0.5804887 0 0 -1
5.9549 2.718141 -1.379722 0 0 -1
5.8799 2.718141 -1.379722 0 0 -1
5.9549 2.710626 -1.387922 0 0 -1
5.7299 2.73317 -1.363321 0 0 -1
5.8049 2.725655 -1.371521 0 0 -1
5.8049 2.73317 -1.363321 0 0 -1
5.8049 2.710626 -1.387922 0 0 -0.9999999
5.8049 2.718141 -1.379722 0 0 -1
5.7299 2.718141 -1.379722 0 0 -1
6.0299 2.718141 -1.379722 0 0 -1
5.9549 2.725655 -1.371521 0 0 -1
5.9549 2.73317 -1.363321 0 0 -1
6.0299 2.73317 -1.363321 0 0 -1
5.8799 2.73317 -1.363321 0 0 -1
6.0299 2.633144 -0.6035538 0 0 -1
5.9549 2.623764 -0.5975773 0 0 -1
5.9549 2.633144 -0.6035538 0 0 -0.9999999
5.9549 2.614383 -0.5916009 0 0 -1
6.0299 2.614383 -0.5916009 0 0 -1
5.8049 2.614383 -0.5916009 0 0 -1
5.8799 2.614383 -0.5916009 0 0 -0.9999999
5.8799 2.633144 -0.6035538 0 0 -1
5.9549 2.642525 -0.6095302 0 0 -1
5.7299 2.614383 -0.5916009 0 0 -0.9999999
5.8049 2.623764 -0.5975773 0 0 -1
5.8049 2.642525 -0.6095302 0 0 -1
5.8049 2.633144 -0.6035538 0 0 -1
5.7299 2.633144 -0.6035538 0 0 -1
5.9549 2.686024 -1.410466 0 0 -1
5.8799 2.686024 -1.410466 0 0 -1
5.9549 2.677823 -1.417981 0 0 -1
5.7299 2.702425 -1.395437 0 0 -0.9999999
5.8049 2.694224 -1.402951 0 0 -1
5.8049 2.702425 -1.395437 0 0 -1
5.8049 2.677823 -1.417981 0 0 -1
5.8049 2.686024 -1.410466 0 0 -1
5.7299 2.686024 -1.410466 0 0 -1
6.0299 2.686024 -1.410466 0 0 -1
5.9549 2.694224 -1.402951 0 0 -1
5.9549 2.702425 -1.395437 0 0 -1
6.0299 2.702425 -1.395437 0 0 -1
5.8799 2.702425 -1.395437 0 0 -1
5.9549 2.668999 -0.6298437 0 0 -1
5.8799 2.668999 -0.6298437 0 0 -1
5.9549 2.677823 -0.636615 0 0 -1
5.7299 2.65135 -0.6163013 0 0 -1
5.8049 2.660174 -0.6230726 0 0 -1
5.8049 2.65135 -0.6163013 0 0 -1
5.8049 2.677823 -0.636615 0 0 -1
5.8049 2.668999 -0.6298437 0 0 -1
5.7299 2.668999 -0.6298437 0 0 -1
6.0299 2.668999 -0.6298437 0 0 -1
5.9549 2.660174 -0.6230726 0 0 -1
5.9549 2.65135 -0.6163013 0 0 -1
6.0299 2.65135 -0.6163013 0 0 -1
5.8799 2.65135 -0.6163013 0 0 -1
5.9549 2.65135 -1.438295 0 0 -1
5.8799 2.65135 -1.438295 0 0 -1
5.9549 2.642525 -1.445065 0 0 -1
5.7299 2.668999 -1.424752 0 0 -1
5.8049 2.660174 -1.431523 0 0 -1
5.8049 2.668999 -1.424752 0 0 -1
5.8049 2.642525 -1.445065 0 0 -0.9999999
5.8049 2.65135 -1.438295 0 0 -1
5.7299 2.65135 -1.438295 0 0 -1
6.0299 2.65135 -1.438295 0 0 -1
5.9549 2.660174 -1.431523 0 0 -1
5.9549 2.668999 -1.424752 0 0 -0.9999999
6.0299 2.668999 -1.424752 0 0 -1
5.8799 2.668999 -1.424752 0 0 -1
5.9549 2.702425 -0.6591585 0 0 -1
5.8799 2.702425 -0.6591585 0 0 -1
5.9549 2.710626 -0.6666732 0 0 -1
5.7299 2.686024 -0.6441295 0 0 -0.9999999
5.8049 2.694224 -0.651644 0 0 -1
5.8049 2.686024 -0.6441295 0 0 -0.9999999
5.8049 2.710626 -0.6666732 0 0 -1
5.8049 2.702425 -0.6591585 0 0 -0.9999999
5.7299 2.702425 -0.6591585 0 0 -1
6.0299 2.702425 -0.6591585 0 0 -0.9999999
5.9549 2.694224 -0.651644 0 0 -1
5.9549 2.686024 -0.6441295 0 0 -0.9999999
6.0299 2.686024 -0.6441295 0 0 -1
5.8799 2.686024 -0.6441295 0 0 -1
5.9549 2.614382 -1.462995 0 0 -1
5.8799 2.614382 -1.462995 0 0 -1
5.9549 2.605001 -1.468971 0 0 -1
5.7299 2.633144 -1.451042 0 0 -1
5.8049 2.623764 -1.457018 0 0 -1
5.8049 2.633144 -1.451042 0 0 -1
5.8049 2.605001 -1.468971 0 0 -0.9999999
5.8049 2.614382 -1.462995 0 0 -1
5.7299 2.614382 -1.462995 0 0 -1
6.0299 2.614382 -1.462995 0 0 -1
5.9549 2.623764 -1.457018 0 0 -1
5.9549 2.633144 -1.451042 0 0 -1
6.0299 2.633144 -1.451042 0 0 -1
5.8799 2.633144 -1.451042 0 0 -1
5.9549 2.73317 -0.6912754 0 0 -1
5.8799 2.73317 -0.6912754 0 0 -1
5.9549 2.740684 -0.699476 0 0 -1
5.7299 2.718141 -0.6748738 0 0 -1
5.8049 2.725655 -0.6830745 0 0 -1
5.8049 2.718141 -0.6748738 0 0 -1
5.8049 2.740684 -0.699476 0 0 -1
5.8049 2.73317 -0.6912754 0 0 -1
5.7299 2.73317 -0.6912754 0 0 -1
6.0299 2.73317 -0.6912754 0 0 -1
5.9549 2.725655 -0.6830745 0 0 -1
5.9549 2.718141 -0.6748738 0 0 -1
6.0299 2.718141 -0.6748738 0 0 -1
5.8799 2.718141 -0.6748738 0 0 -0.9999999
5.9549 2.575403 -1.484379 0 0 -1
5.8799 2.575403 -1.484379 0 0 -1
5.9549 2.565536 -1.489515 0 0 -1
5.7299 2.595135 -1.474107 0 0 -1
5.8049 2.585269 -1.479243 0 0 -1
5.8049 2.595135 -1.474107 0 0 -1
5.8049 2.565536 -1.489515 0 0 -1
5.8049 2.575403 -1.484379 0 0 -1
5.7299 2.575403 -1.484379 0 0 -1
5.9549 2.760998 -0.7259493 0 0 -0.9999999
5.8799 2.760998 -0.7259493 0 0 -1
5.9549 2.767769 -0.7347736 0 0 -0.9999999
5.7299 2.747455 -0.7083004 0 0 -1
5.8049 2.754227 -0.7171247 0 0 -1
5.8049 2.747455 -0.7083004 0 0 -1
5.8049 2.767769 -0.7347736 0 0 -1
5.8049 2.760998 -0.7259493 0 0 -0.9999999
5.7299 2.760998 -0.7259493 0 0 -1
6.0299 2.575403 -1.484379 0 0 -1
5.9549 2.585269 -1.479243 0 0 -1
5.9549 2.595135 -1.474107 0 0 -1
6.0299 2.595135 -1.474107 0 0 -0.9999999
5.8799 2.595135 -1.474107 0 0 -1
6.0299 2.760998 -0.7259493 0 0 -1
5.9549 2.754227 -0.7171247 0 0 -1
5.9549 2.747455 -0.7083004 0 0 -1
6.0299 2.747455 -0.7083004 0 0 -0.9999999
5.8799 2.747455 -0.7083004 0 0 -1
6.0299 2.534708 -1.502285 0 0 -1
5.9549 2.544984 -1.498028 0 0 -1
5.9549 2.534708 -1.502285 0 0 -1
5.9549 2.555261 -1.493772 0 0 -1
6.0299 2.555261 -1.493772 0 0 -0.9999999
5.8049 2.555261 -1.493772 0 0 -1
5.8799 2.555261 -1.493772 0 0 -1
5.9549 2.785698 -0.7629166 0 0 -1
5.8799 2.785698 -0.7629166 0 0 -1
5.9549 2.791675 -0.7722976 0 0 -1
5.7299 2.773746 -0.7441547 0 0 -1
5.8049 2.779722 -0.7535357 0 0 -1
5.8049 2.773746 -0.7441547 0 0 -1
5.8049 2.791675 -0.7722976 0 0 -1
5.8049 2.785698 -0.7629166 0 0 -1
5.7299 2.785698 -0.7629166 0 0 -1
5.8799 2.534708 -1.502285 0 0 -1
5.9549 2.524431 -1.506541 0 0 -1
5.7299 2.555261 -1.493772 0 0 -1
5.8049 2.544984 -1.498028 0 0 -1
5.8049 2.524431 -1.506541 0 0 -1
5.8049 2.534708 -1.502285 0 0 -1
5.7299 2.534708 -1.502285 0 0 -1
6.0299 2.785698 -0.7629166 0 0 -1
5.9549 2.779722 -0.7535357 0 0 -1
5.9549 2.773746 -0.7441547 0 0 -1
6.0299 2.773746 -0.7441547 0 0 -0.9999999
5.8799 2.773746 -0.7441547 0 0 -1
6.0299 2.492607 -1.516576 0 0 -1
5.9549 2.503215 -1.513231 0 0 -1
5.9549 2.492607 -1.516576 0 0 -1
5.9549 2.513823 -1.509886 0 0 -1
6.0299 2.513823 -1.509886 0 0 -1
5.8049 2.513823 -1.509886 0 0 -1
5.8799 2.513823 -1.509886 0 0 -1
5.8799 2.492607 -1.516576 0 0 -1
5.9549 2.481999 -1.51992 0 0 -1
5.7299 2.513823 -1.509886 0 0 -1
5.8049 2.503215 -1.513231 0 0 -1
5.8049 2.481999 -1.51992 0 0 -1
5.8049 2.492607 -1.516576 0 0 -1
5.7299 2.492607 -1.516576 0 0 -1
5.9549 2.807082 -0.8018963 0 0 -1
5.8799 2.807082 -0.8018963 0 0 -1
5.9549 2.812218 -0.8117626 0 0 -1
5.7299 2.796811 -0.7821639 0 0 -1
5.8049 2.801946 -0.7920301 0 0 -1
5.8049 2.796811 -0.7821639 0 0 -1
5.8049 2.812218 -0.8117626 0 0 -1
5.8049 2.807082 -0.8018963 0 0 -1
5.7299 2.807082 -0.8018963 0 0 -1
6.0299 2.807082 -0.8018963 0 0 -1
5.9549 2.801946 -0.7920301 0 0 -1
5.9549 2.796811 -0.7821639 0 0 -1
6.0299 2.796811 -0.7821639 0 0 -1
5.8799 2.796811 -0.7821639 0 0 -1
6.0299 2.449421 -1.527143 0 0 -1
5.9549 2.46028 -1.524735 0 0 -1
5.9549 2.449421 -1.527143 0 0 -1
5.9549 2.47114 -1.522328 0 0 -1
6.0299 2.47114 -1.522328 0 0 -1
5.8049 2.47114 -1.522328 0 0 -1
5.8799 2.47114 -1.522328 0 0 -1
5.8799 2.449421 -1.527143 0 0 -1
5.9549 2.438562 -1.52955 0 0 -1
5.7299 2.47114 -1.522328 0 0 -1
5.8049 2.46028 -1.524735 0 0 -1
5.8049 2.438562 -1.52955 0 0 -1
5.8049 2.449421 -1.527143 0 0 -1
5.7299 2.449421 -1.527143 0 0 -1
5.9549 2.824988 -0.8425913 0 0 -1
5.8799 2.824988 -0.8425913 0 0 -1
5.9549 2.829245 -0.8528676 0 0 -1
5.7299 2.816475 -0.8220387 0 0 -1
5.8049 2.820732 -0.832315 0 0 -1
5.8049 2.816475 -0.8220387 0 0 -1
5.8049 2.829245 -0.8528676 0 0 -1
5.8049 2.824988 -0.8425913 0 0 -0.9999999
5.7299 2.824988 -0.8425913 0 0 -1
6.0299 2.824988 -0.8425913 0 0 -1
5.9549 2.820732 -0.832315 0 0 -1
5.9549 2.816475 -0.8220387 0 0 -1
6.0299 2.816475 -0.8220387 0 0 -1
5.8799 2.816475 -0.8220387 0 0 -1
6.0299 2.405478 -1.533906 0 0 -1
5.9549 2.416506 -1.532454 0 0 -1
5.9549 2.405478 -1.533906 0 0 -1
5.9549 2.427534 -1.531002 0 0 -1
6.0299 2.427534 -1.531002 0 0 -1
5.8049 2.427534 -1.531002 0 0 -1
5.8799 2.427534 -1.531002 0 0 -1
5.8799 2.405478 -1.533906 0 0 -1
5.9549 2.394451 -1.535357 0 0 -1
5.7299 2.427534 -1.531002 0 0 -1
5.8049 2.416506 -1.532454 0 0 -1
5.8049 2.394451 -1.535357 0 0 -1
5.8049 2.405478 -1.533906 0 0 -1
5.7299 2.405478 -1.533906 0 0 -0.9999999
5.9549 2.839279 -0.884692 0 0 -1
5.8799 2.839279 -0.884692 0 0 -1
5.9549 2.842624 -0.8953001 0 0 -0.9999999
5.7299 2.832589 -0.8634758 0 0 -1
5.8049 2.835934 -0.8740838 0 0 -1
5.8049 2.832589 -0.8634758 0 0 -1
5.8049 2.842624 -0.8953001 0 0 -1
5.8049 2.839279 -0.884692 0 0 -0.9999999
5.7299 2.839279 -0.884692 0 0 -1
6.0299 2.839279 -0.884692 0 0 -1
5.9549 2.835934 -0.8740838 0 0 -0.9999999
5.9549 2.832589 -0.8634758 0 0 -1
6.0299 2.832589 -0.8634758 0 0 -1
5.8799 2.832589 -0.8634758 0 0 -1
6.0299 2.361114 -1.536813 0 0 -1
5.9549 2.372226 -1.536328 0 0 -1
5.9549 2.361114 -1.536813 0 0 -1
5.9549 2.383338 -1.535843 0 0 -1
6.0299 2.383338 -1.535843 0 0 -1
5.8049 2.383338 -1.535843 0 0 -1
5.8799 2.383338 -1.535843 0 0 -1
5.8799 2.361114 -1.536813 0 0 -1
5.9549 2.350001 -1.537298 0 0 -1
5.7299 2.383338 -1.535843 0 0 -1
5.8049 2.372226 -1.536328 0 0 -1
5.8049 2.350001 -1.537298 0 0 -1
5.8049 2.361114 -1.536813 0 0 -1
5.7299 2.361114 -1.536813 0 0 -1
5.9549 2.849846 -0.9278779 0 0 -1
5.8799 2.849846 -0.9278779 0 0 -1
5.9549 2.852253 -0.9387374 0 0 -1
5.7299 2.845031 -0.9061594 0 0 -1
5.8049 2.847439 -0.9170187 0 0 -1
5.8049 2.845031 -0.9061594 0 0 -1
5.8049 2.852253 -0.9387374 0 0 -0.9999999
5.8049 2.849846 -0.9278779 0 0 -1
5.7299 2.849846 -0.9278779 0 0 -1
6.0299 2.849846 -0.9278779 0 0 -1
5.9549 2.847439 -0.9170187 0 0 -1
5.9549 2.845031 -0.9061594 0 0 -0.9999999
6.0299 2.845031 -0.9061594 0 0 -1
5.8799 2.845031 -0.9061594 0 0 -1
5.9549 2.856609 -0.9718206 0 0 -1
5.8799 2.856609 -0.9718206 0 0 -1
5.9549 2.858061 -0.9828484 0 0 -1
5.7299 2.853705 -0.9497652 0 0 -1
5.8049 2.855157 -0.9607928 0 0 -0.9999999
5.8049 2.853705 -0.9497652 0 0 -1
5.8049 2.858061 -0.9828484 0 0 -1
5.8049 2.856609 -0.9718206 0 0 -1
5.7299 2.856609 -0.9718206 0 0 -1
6.0299 2.856609 -0.9718206 0 0 -1
5.9549 2.855157 -0.9607928 0 0 -1
5.9549 2.853705 -0.9497652 0 0 -1
6.0299 2.853705 -0.9497652 0 0 -1
5.8799 2.853705 -0.9497652 0 0 -1
5.9549 2.859517 -1.016186 0 0 -1
5.8799 2.859517 -1.016186 0 0 -0.9999999
5.7299 2.858546 -0.9939606 0 0 -1
5.8049 2.859031 -1.005073 0 0 -0.9999999
5.8049 2.858546 -0.9939606 0 0 -1
5.8049 2.859517 -1.016186 0 0 -1
5.7299 2.859517 -1.016186 0 0 -1
6.0299 2.859517 -1.016186 0 0 -0.9999999
5.9549 2.859031 -1.005073 0 0 -1
5.9549 2.858546 -0.9939606 0 0 -1
6.0299 2.858546 -0.9939606 0 0 -1
5.8799 2.858546 -0.9939606 0 0 -1
5.8799 2.858546 -1.060635 0 0 -1
5.7299 2.859517 -1.03841 0 0 -1
5.8049 2.859031 -1.049522 0 0 -1
5.8049 2.858546 -1.060635 0 0 -1
5.7299 2.858546 -1.060635 0 0 -0.9999999
6.0299 1.27 -1.537298 0 0 -0.9999999
5.9549 1.630001 -1.537298 0 0 -1
5.9549 1.27 -1.537298 0 0 -1
5.9549 2.350001 -1.537298 0 0 -1
5.9549 1.990001 -1.537298 0 0 -0.9999999
6.0299 1.990001 -1.537298 0 0 -1
5.8049 1.990001 -1.537298 0 0 -1
5.8799 1.990001 -1.537298 0 0 -1
5.8049 2.350001 -1.537298 0 0 -1
5.8799 1.27 -1.537298 0 0 -0.9999999
5.9549 0.9100003 -1.537298 0 0 -1
5.7299 1.990001 -1.537298 0 0 -1
5.8049 1.630001 -1.537298 0 0 -1
5.8049 0.9100003 -1.537298 0 0 -1
5.8049 1.27 -1.537298 0 0 -1
5.7299 1.27 -1.537298 0 0 -1
6.0299 0.9100004 -0.7722976 0 0 -1
5.9549 0.9100004 -1.027298 0 0 -0.9999999
5.9549 0.9100004 -0.7722976 0 0 -1
5.9549 0.9100003 -1.537298 0 0 -1
5.9549 0.9100004 -1.282298 0 0 -1
6.0299 0.9100004 -1.282298 0 0 -1
5.8049 0.9100004 -1.282298 0 0 -1
5.8799 0.9100004 -1.282298 0 0 -1
5.8049 0.9100003 -1.537298 0 0 -1
5.8799 0.9100004 -0.7722976 0 0 -0.9999999
5.9549 0.9100005 -0.5172974 0 0 -1
5.7299 0.9100004 -1.282298 0 0 -1
5.8049 0.9100004 -1.027298 0 0 -1
5.8049 0.9100005 -0.5172974 0 0 -1
5.8049 0.9100004 -0.7722976 0 0 -1
5.7299 0.9100004 -0.7722976 0 0 -1
5.7299 0.9100008 4.060283 0 0 -1
5.8049 0.9100008 4.315283 0 0 -1
5.8049 0.9100008 4.060283 0 0 -1
5.8049 0.9100013 4.825284 0 0 -1
5.8049 0.9100013 4.570284 0 0 -1
5.7299 0.9100013 4.570284 0 0 -1
5.9549 0.9100013 4.570284 0 0 -1
5.8799 0.9100013 4.570284 0 0 -1
5.9549 0.9100013 4.825284 0 0 -1
5.8799 0.9100008 4.060283 0 0 -1
5.8049 0.9100013 3.805284 0 0 -0.9999999
6.0299 0.9100013 4.570284 0 0 -1
5.9549 0.9100008 4.315283 0 0 -1
5.9549 0.9100013 3.805284 0 0 -1
5.9549 0.9100008 4.060283 0 0 -1
6.0299 0.9100008 4.060283 0 0 -1
5.7299 1.270001 4.825284 0 0 -0.9999999
5.8049 1.630002 4.825284 0 0 -1
5.8049 1.270001 4.825284 0 0 -1
5.8049 2.350002 4.825284 0 0 -1
5.8049 1.990002 4.825284 0 0 -1
5.7299 1.990002 4.825284 0 0 -1
5.9549 1.990002 4.825284 0 0 -1
5.8799 1.990002 4.825284 0 0 -1
5.9549 2.350002 4.825284 0 0 -0.9999999
5.8799 1.270001 4.825284 0 0 -1
5.8049 0.9100013 4.825284 0 0 -1
6.0299 1.990002 4.825284 0 0 -1
5.9549 1.630002 4.825284 0 0 -1
5.9549 0.9100013 4.825284 0 0 -0.9999999
5.9549 1.270001 4.825284 0 0 -1
6.0299 1.270001 4.825284 0 0 -0.9999999
5.7299 2.858547 4.34862 0 0 -0.9999999
5.8049 2.859032 4.337508 0 0 -1
5.8049 2.858547 4.34862 0 0 -0.9999999
5.8049 2.860003 4.315283 0 0 -1
5.8049 2.859517 4.326395 0 0 -1
5.7299 2.859517 4.326395 0 0 -1
5.9549 2.859517 4.326395 0 0 -0.9999999
5.8799 2.859517 4.326395 0 0 -1
5.9549 2.860003 4.315283 0 0 -1
5.8049 2.853706 4.392816 0 0 -1
5.8799 2.853706 4.392816 0 0 -1
5.8049 2.852254 4.403844 0 0 -1
6.0299 2.85661 4.370761 0 0 -1
5.9549 2.855158 4.381788 0 0 -1
5.9549 2.85661 4.370761 0 0 -1
5.9549 2.852254 4.403844 0 0 -0.9999999
5.9549 2.853706 4.392816 0 0 -0.9999999
6.0299 2.853706 4.392816 0 0 -1
5.7299 2.853706 4.392816 0 0 -1
5.8049 2.855158 4.381788 0 0 -1
5.8049 2.858062 4.359733 0 0 -1
5.8049 2.85661 4.370761 0 0 -1
5.7299 2.85661 4.370761 0 0 -1
5.8799 2.85661 4.370761 0 0 -1
5.9549 2.858062 4.359733 0 0 -1
5.8049 2.845032 4.436421 0 0 -1
5.8799 2.845032 4.436421 0 0 -1
5.8049 2.842625 4.447281 0 0 -1
6.0299 2.849847 4.414702 0 0 -1
5.9549 2.847439 4.425562 0 0 -1
5.9549 2.849847 4.414702 0 0 -1
5.9549 2.842625 4.447281 0 0 -1
5.9549 2.845032 4.436421 0 0 -1
6.0299 2.845032 4.436421 0 0 -1
5.7299 2.845032 4.436421 0 0 -1
5.8049 2.847439 4.425562 0 0 -1
5.8049 2.849847 4.414702 0 0 -0.9999999
5.7299 2.849847 4.414702 0 0 -1
5.8799 2.849847 4.414702 0 0 -0.9999999
5.7299 2.383339 3.806739 0 0 -1
5.8049 2.372227 3.806254 0 0 -1
5.8049 2.383339 3.806739 0 0 -0.9999999
5.8049 2.350002 3.805283 0 0 -1
5.8049 2.361114 3.805768 0 0 -0.9999999
5.7299 2.361114 3.805768 -0.9999999 0 0
5.9549 2.361114 3.805768 -0.9999999 0 0
5.8799 2.361114 3.805768 -1 0 0
5.9549 2.350002 3.805283 -1 0 0
5.8799 2.383339 3.806739 -1 0 0
5.8049 2.394452 3.807224 -1 0 0
6.0299 2.361114 3.805768 -1 0 0
5.9549 2.372227 3.806254 -1 0 0
5.9549 2.394452 3.807224 -1 0 0
5.9549 2.383339 3.806739 -1 0 0
6.0299 2.383339 3.806739 -0.9999999 0 0
5.8049 2.83259 4.479105 -1 0 0
5.8799 2.83259 4.479105 -1 0 0
5.8049 2.829245 4.489714 -1 0 0
6.0299 2.83928 4.45789 -1 0 0
5.9549 2.835935 4.468497 -1 0 0
5.9549 2.83928 4.45789 0 -1 0
5.9549 2.829245 4.489714 0 -1 0
