# .PCD v.7 - Point Cloud Data file format
VERSION .7
FIELDS x y z normal_x normal_y normal_z
SIZE 4 4 4 4 4 4
TYPE F F F F F F
COUNT 1 1 1 1 1 1
WIDTH 1526
HEIGHT 1
VIEWPOINT 0 0 0 1 0 0 0
POINTS 1526
DATA ascii
3.136975 0 -4.612703 0 0.6168099 0.7871122
3.0151 0.61875 -4.612703 0 0 1
3.055725 0.4125 -4.612703 0 0 1
3.055725 0.61875 -4.612703 0 0 1
3.136975 0.61875 -4.612703 0 0 1
3.09635 0.61875 -4.612703 0 0 1
3.136975 0.4125 -4.612703 0 0 1
2.77135 1.44375 -4.612703 0 0 1
2.8526 1.03125 -4.612703 0 0 1
2.811975 1.2375 -4.612703 0 0 1
2.811975 1.44375 -4.612703 0 0 1
2.8526 1.44375 -4.612703 0 0 1
2.974475 0.4125 -4.612703 0 0 1
2.974475 0.825 -4.612703 0 0 1
2.974475 0.61875 -4.612703 0 0 1
2.93385 0.61875 -4.612703 0 0 1
2.893225 0.825 -4.612703 0 0 1
2.974475 1.44375 -4.612703 0 0 1
2.893225 1.44375 -4.612703 0 0 1
2.93385 1.44375 -4.612703 0 0 1
2.974475 1.2375 -4.612703 0 0 1
2.974475 1.03125 -4.612703 0 0 1
2.893225 1.03125 -4.612703 0 0 1
2.93385 1.03125 -4.612703 0 0 1
2.893225 1.2375 -4.612703 0 0 1
6.874475 0 -5.116078 0 1 0
7.1101 0 -5.163578 -0.6586461 0.7524529 0
6.403225 0 -5.021078 0 1 0
6.63885 0 -5.068578 0 1 0
7.1101 0 -4.745328 -0.6586459 0.752453 0
6.874475 0 -4.906953 0 1 0
6.874475 0 -4.697828 0 1 0
5.460725 0 -4.831078 0 1 0
5.69635 0 -4.878578 0 1 0
6.1676 0 -4.555328 0 1 0
5.931975 0 -4.716953 0 1 0
5.931975 0 -4.507828 0 1 0
5.931975 0 -4.926078 0 1 0
6.1676 0 -4.973578 0 1 0
7.1101 0 -3.908828 -0.6586459 0.752453 0
6.874475 0 -4.070453 0 1 0
6.874475 0 -3.861328 0 1 0
6.874475 0 -4.488703 0 1 0
6.874475 0 -4.279578 0 1 0
7.1101 0 -4.327078 -0.6586459 0.752453 0
6.403225 0 -4.184578 0 1 0
6.63885 0 -4.232078 0 1 0
6.403225 0 -4.393703 0 1 0
6.403225 0 -4.811953 0 1 0
6.403225 0 -4.602828 0 1 0
6.63885 0 -4.650328 0 1 0
3.575725 0 -4.451078 0 1 0
3.81135 0 -4.498578 0 1 0
4.2826 0 -4.175328 0 1 0
4.046975 0 -4.336953 0 1 0
4.046975 0 -4.127828 0 1 0
4.046975 0 -4.546078 0 1 0
4.2826 0 -4.593578 0 1 0
5.2251 0 -3.528828 0 1 0
4.989475 0 -3.690453 0 1 0
4.989475 0 -3.481328 0 1 0
4.989475 0 -4.108703 0 1 0
4.989475 0 -3.899578 0 1 0
5.2251 0 -3.947078 0 1 0
4.518225 0 -3.804578 0 1 0
4.75385 0 -3.852078 0 1 0
4.518225 0 -4.013703 0 1 0
4.989475 0 -4.736078 0 1 0
5.2251 0 -4.783578 0 1 0
4.518225 0 -4.641078 0 1 0
4.75385 0 -4.688578 0 1 0
5.2251 0 -4.365328 0 1 0
4.989475 0 -4.526953 0 1 0
4.989475 0 -4.317828 0 1 0
4.518225 0 -4.222828 0 1 0
4.75385 0 -4.270328 0 1 0
4.518225 0 -4.431953 0 1 0
7.1101 0 -2.235828 -0.6586459 0.7524531 0
6.874475 0 -2.397453 0 1 0
6.874475 0 -2.188328 0 1 0
6.874475 0 -2.815703 0 1 0
6.874475 0 -2.606578 0 1 0
7.1101 0 -2.654078 -0.6586459 0.752453 0
6.403225 0 -2.511578 0 1 0
6.63885 0 -2.559078 0 1 0
6.403225 0 -2.720703 0 1 0
6.874475 0 -3.652203 0 1 0
6.874475 0 -3.443078 0 1 0
7.1101 0 -3.490578 -0.6586459 0.752453 0
6.403225 0 -3.348078 0 1 0
6.63885 0 -3.395578 0 1 0
6.403225 0 -3.557203 0 1 0
7.1101 0 -3.072328 -0.6586459 0.752453 0
6.874475 0 -3.233953 0 1 0
6.874475 0 -3.024828 0 1 0
5.460725 0 -3.158078 0 1 0
5.69635 0 -3.205578 0 1 0
5.460725 0 -3.367203 0 1 0
6.1676 0 -2.882328 0 1 0
5.931975 0 -3.043953 0 1 0
5.931975 0 -2.834828 0 1 0
5.931975 0 -3.462203 0 1 0
5.931975 0 -3.253078 0 1 0
6.1676 0 -3.300578 0 1 0
6.63885 0 -2.977328 0 1 0
6.403225 0 -3.138953 0 1 0
6.403225 0 -2.929828 0 1 0
5.460725 0 -4.621953 0 1 0
5.460725 0 -4.203703 0 1 0
5.460725 0 -4.412828 0 1 0
5.69635 0 -4.460328 0 1 0
5.931975 0 -4.298703 0 1 0
5.460725 0 -3.576328 0 1 0
5.931975 0 -3.671328 0 1 0
5.69635 0 -3.623828 0 1 0
5.460725 0 -3.785453 0 1 0
5.460725 0 -3.994578 0 1 0
6.63885 0 -3.813828 0 1 0
6.1676 0 -4.137078 0 1 0
6.403225 0 -3.975453 0 1 0
6.403225 0 -3.766328 0 1 0
6.1676 0 -3.718828 0 1 0
5.69635 0 -4.042078 0 1 0
5.931975 0 -3.880453 0 1 0
5.931975 0 -4.089578 0 1 0
7.1101 2.8875 -5.163578 -1 0 0
7.1101 3.09375 -5.163578 -1 0 0
7.1101 2.475 -5.163578 -1 0 0
7.1101 2.68125 -5.163578 -1 0 0
7.1101 2.68125 -4.745328 -1 0 0
7.1101 2.68125 -4.954453 -1 0 0
7.1101 2.475 -4.745328 -1 0 0
7.1101 1.65 -5.163578 -1 0 0
7.1101 1.85625 -5.163578 -1 0 0
7.1101 1.85625 -4.745328 -1 0 0
7.1101 1.85625 -4.954453 -1 0 0
7.1101 1.65 -4.745328 -1 0 0
7.1101 2.0625 -5.163578 -1 0 0
7.1101 2.26875 -5.163578 -1 0 0
7.1101 1.85625 -3.908828 -1 0 0
7.1101 1.85625 -4.117953 -1 0 0
7.1101 1.65 -3.908828 -1 0 0
7.1101 2.26875 -4.536203 -1 0 0
7.1101 2.0625 -4.327078 -1 0 0
7.1101 2.26875 -4.327078 -1 0 0
7.1101 1.65 -4.327078 -1 0 0
7.1101 1.85625 -4.327078 -1 0 0
7.1101 1.85625 -4.536203 -1 0 0
7.1101 2.26875 -4.954453 -1 0 0
7.1101 2.0625 -4.745328 -1 0 0
7.1101 2.26875 -4.745328 -1 0 0
7.1101 0.20625 -5.163578 -1 0 0
7.1101 0.20625 -4.745328 -1 0 0
7.1101 0.20625 -4.954453 -1 0 0
7.1101 0.4125 -5.163578 -1 0 0
7.1101 0.61875 -5.163578 -1 0 0
7.1101 0.20625 -3.908828 -1 0 0
7.1101 0.20625 -4.117953 -1 0 0
7.1101 0.61875 -4.536203 -1 0 0
7.1101 0.4125 -4.327078 -1 0 0
7.1101 0.61875 -4.327078 -1 0 0
7.1101 0.20625 -4.327078 -1 0 0
7.1101 0.20625 -4.536203 -1 0 0
7.1101 1.2375 -5.163578 -1 0 0
7.1101 1.44375 -5.163578 -1 0 0
7.1101 0.825 -5.163578 -1 0 0
7.1101 1.03125 -5.163578 -1 0 0
7.1101 1.03125 -4.745328 -1 0 0
7.1101 1.03125 -4.954453 -1 0 0
7.1101 0.825 -4.745328 -1 0 0
7.1101 0.4125 -4.745328 -1 0 0
7.1101 0.61875 -4.745328 -1 0 0
7.1101 0.61875 -4.954453 -1 0 0
7.1101 0.20625 -2.235828 -1 0 0
7.1101 0.20625 -2.444953 -1 0 0
7.1101 0.61875 -2.863203 -1 0 0
7.1101 0.4125 -2.654078 -1 0 0
7.1101 0.61875 -2.654078 -1 0 0
7.1101 0.20625 -2.654078 -1 0 0
7.1101 0.20625 -2.863203 -1 0 0
7.1101 1.44375 -3.699703 -1 0 0
7.1101 1.2375 -3.490578 -1 0 0
7.1101 1.44375 -3.490578 -1 0 0
7.1101 0.825 -3.490578 -1 0 0
7.1101 1.03125 -3.490578 -1 0 0
7.1101 1.03125 -3.699703 -1 0 0
7.1101 1.03125 -3.072328 -1 0 0
7.1101 1.03125 -3.281453 -1 0 0
7.1101 0.825 -3.072328 -1 0 0
7.1101 0.20625 -3.490578 -1 0 0
7.1101 0.20625 -3.699703 -1 0 0
7.1101 0.20625 -3.072328 -1 0 0
7.1101 0.20625 -3.281453 -1 0 0
7.1101 0.61875 -3.699703 -1 0 0
7.1101 0.4125 -3.490578 -1 0 0
7.1101 0.61875 -3.490578 -1 0 0
7.1101 0.61875 -3.072328 -1 0 0
7.1101 0.61875 -3.281453 -1 0 0
7.1101 0.4125 -3.072328 -1 0 0
7.1101 1.44375 -4.954453 -1 0 0
7.1101 1.03125 -4.536203 -1 0 0
7.1101 1.2375 -4.745328 -1 0 0
7.1101 1.44375 -4.745328 -1 0 0
7.1101 1.44375 -4.536203 -1 0 0
7.1101 0.4125 -3.908828 -1 0 0
7.1101 0.825 -3.908828 -1 0 0
7.1101 0.61875 -3.908828 -1 0 0
7.1101 0.61875 -4.117953 -1 0 0
7.1101 0.825 -4.327078 -1 0 0
7.1101 1.44375 -3.908828 -1 0 0
7.1101 1.44375 -4.327078 -1 0 0
7.1101 1.44375 -4.117953 -1 0 0
7.1101 1.2375 -3.908828 -1 0 0
7.1101 1.03125 -3.908828 -1 0 0
7.1101 1.03125 -4.327078 -1 0 0
7.1101 1.03125 -4.117953 -1 0 0
7.1101 1.2375 -4.327078 -1 0 0
3.299475 0 -4.451078 0 1 0
3.5351 0 -4.289453 0 1 0
3.45385 0 -3.966203 0 1 0
3.494475 0 -4.127828 0 1 0
3.218225 0 -4.127828 0 1 0
3.770725 0 -4.127828 0 1 0
4.00635 0 -3.966203 0 1 0
3.29135 0 -3.319703 0 1 0
3.331975 0 -3.481328 0 1 0
3.055725 0 -3.481328 0 1 0
3.884475 0 -3.481328 0 1 0
3.608225 0 -3.481328 0 1 0
3.84385 0 -3.319703 0 1 0
3.136975 0 -3.804578 0 1 0
3.3726 0 -3.642953 0 1 0
3.413225 0 -3.804578 0 1 0
4.713225 0 -3.481328 0 1 0
4.94885 0 -3.319703 0 1 0
4.241975 0 -3.804578 0 1 0
4.4776 0 -3.642953 0 1 0
4.39635 0 -3.319703 0 1 0
4.436975 0 -3.481328 0 1 0
4.160725 0 -3.481328 0 1 0
3.689475 0 -3.804578 0 1 0
3.9251 0 -3.642953 0 1 0
3.965725 0 -3.804578 0 1 0
2.96635 0 -2.026703 0 0.6168097 -0.7871124
3.006975 0 -2.188328 0 1 0
2.730725 0 -2.188328 0 1 0
3.559475 0 -2.188328 0 1 0
3.283225 0 -2.188328 0 1 0
3.51885 0 -2.026703 0 0.6168095 -0.7871124
2.811975 0 -2.511578 0 1 0
3.0476 0 -2.349953 0 1 0
3.088225 0 -2.511578 0 1 0
4.664475 0 -2.188328 0 1 0
4.388225 0 -2.188328 0 1 0
4.62385 0 -2.026703 0 0.6168095 -0.7871124
3.916975 0 -2.511578 0 1 0
4.1526 0 -2.349953 0 1 0
4.193225 0 -2.511578 0 1 0
4.07135 0 -2.026703 0 0.6168095 -0.7871124
4.111975 0 -2.188328 0 1 0
3.835725 0 -2.188328 0 1 0
2.974475 0 -3.158078 0 1 0
3.2101 0 -2.996453 0 1 0
3.250725 0 -3.158078 0 1 0
3.12885 0 -2.673203 0 1 0
3.169475 0 -2.834828 0 1 0
2.893225 0 -2.834828 0 1 0
3.721975 0 -2.834828 0 1 0
3.445725 0 -2.834828 0 1 0
3.68135 0 -2.673203 0 1 0
3.6001 0 -2.349953 0 1 0
3.640725 0 -2.511578 0 1 0
3.364475 0 -2.511578 0 1 0
6.598225 0 -2.188328 0 1 0
6.83385 0 -2.026703 0 0.6168095 -0.7871124
6.126975 0 -2.511578 0 1 0
6.3626 0 -2.349953 0 1 0
6.28135 0 -2.026703 0 0.6168095 -0.7871124
6.321975 0 -2.188328 0 1 0
6.045725 0 -2.188328 0 1 0
5.184475 0 -3.158078 0 1 0
5.4201 0 -2.996453 0 1 0
5.33885 0 -2.673203 0 1 0
5.379475 0 -2.834828 0 1 0
5.103225 0 -2.834828 0 1 0
5.655725 0 -2.834828 0 1 0
5.89135 0 -2.673203 0 1 0
5.17635 0 -2.026703 0 0.6168095 -0.7871124
5.216975 0 -2.188328 0 1 0
4.940725 0 -2.188328 0 1 0
5.769475 0 -2.188328 0 1 0
5.493225 0 -2.188328 0 1 0
5.72885 0 -2.026703 0 0.6168095 -0.7871124
5.021975 0 -2.511578 0 1 0
5.2576 0 -2.349953 0 1 0
5.298225 0 -2.511578 0 1 0
5.850725 0 -2.511578 0 1 0
5.574475 0 -2.511578 0 1 0
5.8101 0 -2.349953 0 1 0
3.526975 0 -3.158078 0 1 0
3.998225 0 -2.834828 0 1 0
3.7626 0 -2.996453 0 1 0
3.803225 0 -3.158078 0 1 0
4.079475 0 -3.158078 0 1 0
4.7051 0 -2.349953 0 1 0
4.78635 0 -2.673203 0 1 0
4.745725 0 -2.511578 0 1 0
4.469475 0 -2.511578 0 1 0
4.23385 0 -2.673203 0 1 0
4.908225 0 -3.158078 0 1 0
4.355725 0 -3.158078 0 1 0
4.631975 0 -3.158078 0 1 0
4.8676 0 -2.996453 0 1 0
4.826975 0 -2.834828 0 1 0
4.274475 0 -2.834828 0 1 0
4.550725 0 -2.834828 0 1 0
4.3151 0 -2.996453 0 1 0
3.25885 0 -4.451078 0 1 0
3.1776 0 -4.451078 0 1 0
3.218225 0 -4.451078 0 1 0
3.218225 0 -4.289453 0 1 0
3.1776 0 -4.127828 0 1 0
3.0151 0 -4.451078 0 1 0
3.055725 0 -4.451078 0 1 0
3.055725 0 -4.127828 0 1 0
3.055725 0 -4.289453 0 1 0
3.0151 0 -4.127828 0 1 0
3.09635 0 -4.451078 0 1 0
3.136975 0 -4.451078 0 1 0
3.055725 0 -3.642953 0 1 0
3.0151 0 -3.481328 0 1 0
3.136975 0 -3.966203 0 1 0
3.09635 0 -3.804578 0 1 0
3.0151 0 -3.804578 0 1 0
3.055725 0 -3.804578 0 1 0
3.055725 0 -3.966203 0 1 0
3.136975 0 -4.289453 0 1 0
3.09635 0 -4.127828 0 1 0
3.136975 0 -4.127828 0 1 0
2.6901 0 -4.451078 0.9811482 0.1932566 0
2.730725 0 -4.451078 0 1 0
2.730725 0 -4.127828 0 1 0
2.730725 0 -4.289453 0 1 0
2.6901 0 -4.127828 0.9811483 0.1932565 0
2.77135 0 -4.451078 0 1 0
2.811975 0 -4.451078 0 1 0
2.730725 0 -3.481328 0 1 0
2.730725 0 -3.642953 0 1 0
2.6901 0 -3.481328 0.9811483 0.1932563 0
2.811975 0 -3.966203 0 1 0
2.77135 0 -3.804578 0 1 0
2.811975 0 -3.804578 0 1 0
2.6901 0 -3.804578 0.9811483 0.1932565 0
2.730725 0 -3.804578 0 1 0
2.730725 0 -3.966203 0 1 0
2.93385 0 -4.451078 0 1 0
2.974475 0 -4.451078 0 1 0
2.8526 0 -4.451078 0 1 0
2.893225 0 -4.451078 0 1 0
2.893225 0 -4.127828 0 1 0
2.893225 0 -4.289453 0 1 0
2.8526 0 -4.127828 0 1 0
2.77135 0 -4.127828 0 1 0
2.811975 0 -4.127828 0 1 0
2.811975 0 -4.289453 0 1 0
2.730725 0 -2.349953 0 1 0
2.6901 0 -2.188328 0.9811483 0.1932565 0
2.811975 0 -2.673203 0 1 0
2.77135 0 -2.511578 0 1 0
2.6901 0 -2.511578 0.9811483 0.1932565 0
2.730725 0 -2.511578 0 1 0
2.730725 0 -2.673203 0 1 0
2.974475 0 -3.319703 0 1 0
2.93385 0 -3.158078 0 1 0
2.8526 0 -3.158078 0 1 0
2.893225 0 -3.158078 0 1 0
2.893225 0 -3.319703 0 1 0
2.893225 0 -2.996453 0 1 0
2.8526 0 -2.834828 0 1 0
2.6901 0 -3.158078 0.9811482 0.1932566 0
2.730725 0 -3.158078 0 1 0
2.730725 0 -3.319703 0 1 0
2.730725 0 -2.834828 0 1 0
2.730725 0 -2.996453 0 1 0
2.6901 0 -2.834828 0.9811483 0.1932565 0
2.811975 0 -3.319703 0 1 0
2.77135 0 -3.158078 0 1 0
2.811975 0 -3.158078 0 1 0
2.811975 0 -2.834828 0 1 0
2.811975 0 -2.996453 0 1 0
2.77135 0 -2.834828 0 1 0
2.974475 0 -4.289453 0 1 0
2.893225 0 -3.966203 0 1 0
2.93385 0 -4.127828 0 1 0
2.974475 0 -4.127828 0 1 0
2.974475 0 -3.966203 0 1 0
2.77135 0 -3.481328 0 1 0
2.8526 0 -3.481328 0 1 0
2.811975 0 -3.481328 0 1 0
2.811975 0 -3.642953 0 1 0
2.8526 0 -3.804578 0 1 0
2.974475 0 -3.481328 0 1 0
2.974475 0 -3.804578 0 1 0
2.974475 0 -3.642953 0 1 0
2.93385 0 -3.481328 0 1 0
2.893225 0 -3.481328 0 1 0
2.893225 0 -3.804578 0 1 0
2.893225 0 -3.642953 0 1 0
2.93385 0 -3.804578 0 1 0
2.6901 3.3 -4.451078 0.9811483 -0.1932565 0
2.6901 3.09375 -4.451078 1 0 0
2.6901 3.09375 -4.127828 1 0 0
2.6901 3.09375 -4.289453 1 0 0
2.6901 3.3 -4.127828 0.9811483 -0.1932565 0
2.6901 2.8875 -4.451078 1 0 0
2.6901 2.68125 -4.451078 1 0 0
2.6901 3.09375 -3.481328 1 0 0
2.6901 3.09375 -3.642953 1 0 0
2.6901 3.3 -3.481328 0.9811483 -0.1932565 0
2.6901 2.68125 -3.966203 1 0 0
2.6901 2.8875 -3.804578 1 0 0
2.6901 2.68125 -3.804578 1 0 0
2.6901 3.3 -3.804578 0.9811483 -0.1932565 0
2.6901 3.09375 -3.804578 1 0 0
2.6901 3.09375 -3.966203 1 0 0
2.6901 2.0625 -4.451078 1 0 0
2.6901 1.85625 -4.451078 1 0 0
2.6901 2.475 -4.451078 1 0 0
2.6901 2.26875 -4.451078 1 0 0
2.6901 2.26875 -4.127828 1 0 0
2.6901 2.26875 -4.289453 1 0 0
2.6901 2.475 -4.127828 1 0 0
2.6901 2.8875 -4.127828 1 0 0
2.6901 2.68125 -4.127828 1 0 0
2.6901 2.68125 -4.289453 1 0 0
2.6901 3.09375 -2.188328 1 0 0
2.6901 3.09375 -2.349953 1 0 0
2.6901 3.3 -2.188328 0.9811483 -0.1932565 0
2.6901 2.68125 -2.673203 1 0 0
2.6901 2.8875 -2.511578 1 0 0
2.6901 2.68125 -2.511578 1 0 0
2.6901 3.3 -2.511578 0.9811483 -0.1932565 0
2.6901 3.09375 -2.511578 1 0 0
2.6901 3.09375 -2.673203 1 0 0
2.6901 1.85625 -3.319703 1 0 0
2.6901 2.0625 -3.158078 1 0 0
2.6901 1.85625 -3.158078 1 0 0
2.6901 2.475 -3.158078 1 0 0
2.6901 2.26875 -3.158078 1 0 0
2.6901 2.26875 -3.319703 1 0 0
2.6901 2.26875 -2.834828 1 0 0
2.6901 2.26875 -2.996453 1 0 0
2.6901 2.475 -2.834828 1 0 0
2.6901 3.3 -3.158078 0.9811483 -0.1932565 0
2.6901 3.09375 -3.158078 1 0 0
2.6901 3.09375 -3.319703 1 0 0
2.6901 3.09375 -2.834828 1 0 0
2.6901 3.09375 -2.996453 1 0 0
2.6901 3.3 -2.834828 0.9811483 -0.1932565 0
2.6901 2.68125 -3.319703 1 0 0
2.6901 2.8875 -3.158078 1 0 0
2.6901 2.68125 -3.158078 1 0 0
2.6901 2.68125 -2.834828 1 0 0
2.6901 2.68125 -2.996453 1 0 0
2.6901 2.8875 -2.834828 1 0 0
2.6901 0.4125 -4.451078 1 0 0
2.6901 0.20625 -4.451078 1 0 0
2.6901 0.825 -4.451078 1 0 0
2.6901 0.61875 -4.451078 1 0 0
2.6901 0.61875 -4.127828 1 0 0
2.6901 0.61875 -4.289453 1 0 0
2.6901 0.825 -4.127828 1 0 0
2.6901 1.65 -4.451078 1 0 0
2.6901 1.44375 -4.451078 1 0 0
2.6901 1.44375 -4.127828 1 0 0
2.6901 1.44375 -4.289453 1 0 0
2.6901 1.65 -4.127828 1 0 0
2.6901 1.2375 -4.451078 1 0 0
2.6901 1.03125 -4.451078 1 0 0
2.6901 1.44375 -3.481328 1 0 0
2.6901 1.44375 -3.642953 1 0 0
2.6901 1.65 -3.481328 1 0 0
2.6901 1.03125 -3.966203 1 0 0
2.6901 1.2375 -3.804578 1 0 0
2.6901 1.03125 -3.804578 1 0 0
2.6901 1.65 -3.804578 1 0 0
2.6901 1.44375 -3.804578 1 0 0
2.6901 1.44375 -3.966203 1 0 0
2.6901 1.03125 -4.289453 1 0 0
2.6901 1.2375 -4.127828 1 0 0
2.6901 1.03125 -4.127828 1 0 0
2.6901 2.8875 -3.481328 1 0 0
2.6901 2.475 -3.481328 1 0 0
2.6901 2.68125 -3.481328 1 0 0
2.6901 2.68125 -3.642953 1 0 0
2.6901 2.475 -3.804578 1 0 0
2.6901 1.85625 -3.481328 1 0 0
2.6901 1.85625 -3.804578 1 0 0
2.6901 1.85625 -3.642953 1 0 0
2.6901 2.0625 -3.481328 1 0 0
2.6901 2.26875 -3.481328 1 0 0
2.6901 1.85625 -4.289453 1 0 0
2.6901 2.26875 -3.966203 1 0 0
2.6901 2.0625 -4.127828 1 0 0
2.6901 1.85625 -4.127828 1 0 0
2.6901 1.85625 -3.966203 1 0 0
2.6901 2.26875 -3.642953 1 0 0
2.6901 2.0625 -3.804578 1 0 0
2.6901 2.26875 -3.804578 1 0 0
2.6901 3.09375 -2.026703 0.5049871 0 -0.8631269
2.6901 2.8875 -2.188328 1 0 0
2.6901 2.475 -2.188328 1 0 0
2.6901 2.68125 -2.188328 1 0 0
2.6901 2.68125 -2.026703 0.5049871 0 -0.8631269
2.6901 2.68125 -2.349953 1 0 0
2.6901 2.475 -2.511578 1 0 0
2.6901 1.65 -2.188328 1 0 0
2.6901 1.85625 -2.188328 1 0 0
2.6901 1.85625 -2.026703 0.5049871 0 -0.8631269
2.6901 1.85625 -2.511578 1 0 0
2.6901 1.85625 -2.349953 1 0 0
2.6901 1.65 -2.511578 1 0 0
2.6901 2.26875 -2.026703 0.5049871 0 -0.8631269
2.6901 2.0625 -2.188328 1 0 0
2.6901 2.26875 -2.188328 1 0 0
2.6901 1.85625 -2.996453 1 0 0
2.6901 1.65 -3.158078 1 0 0
2.6901 2.26875 -2.673203 1 0 0
2.6901 2.0625 -2.834828 1 0 0
2.6901 1.65 -2.834828 1 0 0
2.6901 1.85625 -2.834828 1 0 0
2.6901 1.85625 -2.673203 1 0 0
2.6901 2.26875 -2.349953 1 0 0
2.6901 2.0625 -2.511578 1 0 0
2.6901 2.26875 -2.511578 1 0 0
2.6901 0.20625 -2.188328 1 0 0
2.6901 0.20625 -2.026703 0.5049871 0 -0.8631269
2.6901 0.20625 -2.511578 1 0 0
2.6901 0.20625 -2.349953 1 0 0
2.6901 0.61875 -2.026703 0.5049871 0 -0.8631269
2.6901 0.4125 -2.188328 1 0 0
2.6901 0.61875 -2.188328 1 0 0
2.6901 0.20625 -3.158078 1 0 0
2.6901 0.20625 -2.996453 1 0 0
2.6901 0.61875 -2.673203 1 0 0
2.6901 0.4125 -2.834828 1 0 0
2.6901 0.61875 -2.834828 1 0 0
2.6901 0.20625 -2.834828 1 0 0
2.6901 0.20625 -2.673203 1 0 0
2.6901 1.44375 -2.026703 0.5049871 0 -0.8631269
2.6901 1.2375 -2.188328 1 0 0
2.6901 1.44375 -2.188328 1 0 0
2.6901 0.825 -2.188328 1 0 0
2.6901 1.03125 -2.188328 1 0 0
2.6901 1.03125 -2.026703 0.5049871 0 -0.8631269
2.6901 1.03125 -2.511578 1 0 0
2.6901 1.03125 -2.349953 1 0 0
2.6901 0.825 -2.511578 1 0 0
2.6901 0.4125 -2.511578 1 0 0
2.6901 0.61875 -2.511578 1 0 0
2.6901 0.61875 -2.349953 1 0 0
2.6901 0.20625 -4.289453 1 0 0
2.6901 0.61875 -3.966203 1 0 0
2.6901 0.4125 -4.127828 1 0 0
2.6901 0.20625 -4.127828 1 0 0
2.6901 0.20625 -3.966203 1 0 0
2.6901 1.44375 -3.319703 1 0 0
2.6901 1.2375 -3.481328 1 0 0
2.6901 0.825 -3.481328 1 0 0
2.6901 1.03125 -3.481328 1 0 0
2.6901 1.03125 -3.319703 1 0 0
2.6901 1.03125 -3.642953 1 0 0
2.6901 0.825 -3.804578 1 0 0
2.6901 0.20625 -3.481328 1 0 0
2.6901 0.20625 -3.319703 1 0 0
2.6901 0.20625 -3.804578 1 0 0
2.6901 0.20625 -3.642953 1 0 0
2.6901 0.61875 -3.319703 1 0 0
2.6901 0.4125 -3.481328 1 0 0
2.6901 0.61875 -3.481328 1 0 0
2.6901 0.61875 -3.804578 1 0 0
2.6901 0.61875 -3.642953 1 0 0
2.6901 0.4125 -3.804578 1 0 0
2.6901 1.44375 -2.349953 1 0 0
2.6901 1.03125 -2.673203 1 0 0
2.6901 1.2375 -2.511578 1 0 0
2.6901 1.44375 -2.511578 1 0 0
2.6901 1.44375 -2.673203 1 0 0
2.6901 0.4125 -3.158078 1 0 0
2.6901 0.825 -3.158078 1 0 0
2.6901 0.61875 -3.158078 1 0 0
2.6901 0.61875 -2.996453 1 0 0
2.6901 0.825 -2.834828 1 0 0
2.6901 1.44375 -3.158078 1 0 0
2.6901 1.44375 -2.834828 1 0 0
2.6901 1.44375 -2.996453 1 0 0
2.6901 1.2375 -3.158078 1 0 0
2.6901 1.03125 -3.158078 1 0 0
2.6901 1.03125 -2.834828 1 0 0
2.6901 1.03125 -2.996453 1 0 0
2.6901 1.2375 -2.834828 1 0 0
3.299475 3.3 -4.451078 0 -1 0
3.25885 3.3 -4.451078 0 -1 0
3.1776 3.3 -4.127828 0 -1 0
3.218225 3.3 -4.289453 0 -1 0
3.218225 3.3 -4.127828 0 -1 0
3.218225 3.3 -4.451078 0 -1 0
3.1776 3.3 -4.451078 0 -1 0
3.0151 3.3 -3.481328 0 -1 0
3.055725 3.3 -3.642953 0 -1 0
3.055725 3.3 -3.481328 0 -1 0
3.055725 3.3 -3.966203 0 -1 0
3.055725 3.3 -3.804578 0 -1 0
3.0151 3.3 -3.804578 0 -1 0
3.136975 3.3 -3.804578 0 -1 0
3.09635 3.3 -3.804578 0 -1 0
3.136975 3.3 -3.966203 0 -1 0
3.055725 3.3 -4.451078 0 -1 0
3.0151 3.3 -4.451078 0 -1 0
3.136975 3.3 -4.451078 0 -1 0
3.09635 3.3 -4.451078 0 -1 0
3.0151 3.3 -4.127828 0 -1 0
3.055725 3.3 -4.289453 0 -1 0
3.055725 3.3 -4.127828 0 -1 0
3.136975 3.3 -4.127828 0 -1 0
3.09635 3.3 -4.127828 0 -1 0
3.136975 3.3 -4.289453 0 -1 0
2.730725 3.3 -2.349953 0 -1 0
2.730725 3.3 -2.188328 0 -1 0
2.730725 3.3 -2.673203 0 -1 0
2.730725 3.3 -2.511578 0 -1 0
2.811975 3.3 -2.511578 0 -1 0
2.77135 3.3 -2.511578 0 -1 0
2.811975 3.3 -2.673203 0 -1 0
2.730725 3.3 -3.319703 0 -1 0
2.730725 3.3 -3.158078 0 -1 0
2.811975 3.3 -3.158078 0 -1 0
2.77135 3.3 -3.158078 0 -1 0
2.811975 3.3 -3.319703 0 -1 0
2.730725 3.3 -2.996453 0 -1 0
2.730725 3.3 -2.834828 0 -1 0
2.974475 3.3 -3.158078 0 -1 0
2.93385 3.3 -3.158078 0 -1 0
2.974475 3.3 -3.319703 0 -1 0
2.8526 3.3 -2.834828 0 -1 0
2.893225 3.3 -2.996453 0 -1 0
2.893225 3.3 -2.834828 0 -1 0
2.893225 3.3 -3.319703 0 -1 0
2.893225 3.3 -3.158078 0 -1 0
2.8526 3.3 -3.158078 0 -1 0
2.77135 3.3 -2.834828 0 -1 0
2.811975 3.3 -2.996453 0 -1 0
2.811975 3.3 -2.834828 0 -1 0
2.730725 3.3 -4.451078 0 -1 0
2.811975 3.3 -4.451078 0 -1 0
2.77135 3.3 -4.451078 0 -1 0
2.730725 3.3 -4.289453 0 -1 0
2.730725 3.3 -4.127828 0 -1 0
2.974475 3.3 -4.451078 0 -1 0
2.93385 3.3 -4.451078 0 -1 0
2.8526 3.3 -4.127828 0 -1 0
2.893225 3.3 -4.289453 0 -1 0
2.893225 3.3 -4.127828 0 -1 0
2.893225 3.3 -4.451078 0 -1 0
2.8526 3.3 -4.451078 0 -1 0
2.730725 3.3 -3.642953 0 -1 0
2.730725 3.3 -3.481328 0 -1 0
2.730725 3.3 -3.966203 0 -1 0
2.730725 3.3 -3.804578 0 -1 0
2.811975 3.3 -3.804578 0 -1 0
2.77135 3.3 -3.804578 0 -1 0
2.811975 3.3 -3.966203 0 -1 0
2.811975 3.3 -4.289453 0 -1 0
2.811975 3.3 -4.127828 0 -1 0
2.77135 3.3 -4.127828 0 -1 0
2.974475 3.3 -3.481328 0 -1 0
2.893225 3.3 -3.481328 0 -1 0
2.93385 3.3 -3.481328 0 -1 0
2.974475 3.3 -3.642953 0 -1 0
2.974475 3.3 -3.804578 0 -1 0
2.77135 3.3 -3.481328 0 -1 0
2.8526 3.3 -3.804578 0 -1 0
2.811975 3.3 -3.642953 0 -1 0
2.811975 3.3 -3.481328 0 -1 0
2.8526 3.3 -3.481328 0 -1 0
2.974475 3.3 -4.289453 0 -1 0
2.974475 3.3 -3.966203 0 -1 0
2.974475 3.3 -4.127828 0 -1 0
2.93385 3.3 -4.127828 0 -1 0
2.893225 3.3 -3.966203 0 -1 0
2.893225 3.3 -3.642953 0 -1 0
2.893225 3.3 -3.804578 0 -1 0
2.93385 3.3 -3.804578 0 -1 0
7.1101 3.3 -2.235828 -0.6586459 -0.7524531 0
7.1101 3.09375 -2.235828 -1 0 0
7.1101 3.09375 -2.026703 -0.6035727 0 -0.797308
7.1101 3.09375 -2.654078 -1 0 0
7.1101 3.09375 -2.444953 -1 0 0
7.1101 3.3 -2.654078 -0.6586459 -0.752453 0
7.1101 2.68125 -2.026703 -0.6035727 0 -0.797308
7.1101 2.8875 -2.235828 -1 0 0
7.1101 2.68125 -2.235828 -1 0 0
7.1101 3.09375 -3.490578 -1 0 0
7.1101 3.09375 -3.281453 -1 0 0
7.1101 3.3 -3.490578 -0.6586457 -0.7524532 0
7.1101 2.68125 -2.863203 -1 0 0
7.1101 2.8875 -3.072328 -1 0 0
7.1101 2.68125 -3.072328 -1 0 0
7.1101 3.3 -3.072328 -0.6586459 -0.752453 0
7.1101 3.09375 -3.072328 -1 0 0
7.1101 3.09375 -2.863203 -1 0 0
7.1101 1.85625 -2.026703 -0.6035727 0 -0.797308
7.1101 2.0625 -2.235828 -1 0 0
7.1101 1.85625 -2.235828 -1 0 0
7.1101 2.475 -2.235828 -1 0 0
7.1101 2.26875 -2.235828 -1 0 0
7.1101 2.26875 -2.026703 -0.6035727 0 -0.797308
7.1101 2.26875 -2.654078 -1 0 0
7.1101 2.26875 -2.444953 -1 0 0
7.1101 2.475 -2.654078 -1 0 0
7.1101 2.8875 -2.654078 -1 0 0
7.1101 2.68125 -2.654078 -1 0 0
7.1101 2.68125 -2.444953 -1 0 0
7.1101 3.09375 -4.954453 -1 0 0
7.1101 3.3 -5.163578 -0.6586457 -0.7524532 0
7.1101 2.68125 -4.536203 -1 0 0
7.1101 2.8875 -4.745328 -1 0 0
7.1101 3.3 -4.745328 -0.6586459 -0.752453 0
7.1101 3.09375 -4.745328 -1 0 0
7.1101 3.09375 -4.536203 -1 0 0
7.1101 1.85625 -3.699703 -1 0 0
7.1101 2.0625 -3.908828 -1 0 0
7.1101 2.475 -3.908828 -1 0 0
7.1101 2.26875 -3.908828 -1 0 0
7.1101 2.26875 -3.699703 -1 0 0
7.1101 2.26875 -4.117953 -1 0 0
7.1101 2.475 -4.327078 -1 0 0
7.1101 3.3 -3.908828 -0.6586461 -0.7524529 0
7.1101 3.09375 -3.908828 -1 0 0
7.1101 3.09375 -3.699703 -1 0 0
7.1101 3.09375 -4.327078 -1 0 0
7.1101 3.09375 -4.117953 -1 0 0
7.1101 3.3 -4.327078 -0.6586459 -0.752453 0
7.1101 2.68125 -3.699703 -1 0 0
7.1101 2.8875 -3.908828 -1 0 0
7.1101 2.68125 -3.908828 -1 0 0
7.1101 2.68125 -4.327078 -1 0 0
7.1101 2.68125 -4.117953 -1 0 0
7.1101 2.8875 -4.327078 -1 0 0
7.1101 0.20625 -2.026703 -0.6035727 0 -0.797308
7.1101 0.4125 -2.235828 -1 0 0
7.1101 0.825 -2.235828 -1 0 0
7.1101 0.61875 -2.235828 -1 0 0
7.1101 0.61875 -2.026703 -0.6035727 0 -0.797308
7.1101 0.61875 -2.444953 -1 0 0
7.1101 0.825 -2.654078 -1 0 0
7.1101 1.65 -2.235828 -1 0 0
7.1101 1.44375 -2.235828 -1 0 0
7.1101 1.44375 -2.026703 -0.6035727 0 -0.797308
7.1101 1.44375 -2.654078 -1 0 0
7.1101 1.44375 -2.444953 -1 0 0
7.1101 1.65 -2.654078 -1 0 0
7.1101 1.03125 -2.026703 -0.6035727 0 -0.797308
7.1101 1.2375 -2.235828 -1 0 0
7.1101 1.03125 -2.235828 -1 0 0
7.1101 1.44375 -3.281453 -1 0 0
7.1101 1.65 -3.490578 -1 0 0
7.1101 1.03125 -2.863203 -1 0 0
7.1101 1.2375 -3.072328 -1 0 0
7.1101 1.65 -3.072328 -1 0 0
7.1101 1.44375 -3.072328 -1 0 0
7.1101 1.44375 -2.863203 -1 0 0
7.1101 1.03125 -2.444953 -1 0 0
7.1101 1.2375 -2.654078 -1 0 0
7.1101 1.03125 -2.654078 -1 0 0
7.1101 2.8875 -3.490578 -1 0 0
7.1101 2.475 -3.490578 -1 0 0
7.1101 2.68125 -3.490578 -1 0 0
7.1101 2.68125 -3.281453 -1 0 0
7.1101 2.475 -3.072328 -1 0 0
7.1101 1.85625 -3.490578 -1 0 0
7.1101 1.85625 -3.072328 -1 0 0
7.1101 1.85625 -3.281453 -1 0 0
7.1101 2.0625 -3.490578 -1 0 0
7.1101 2.26875 -3.490578 -1 0 0
7.1101 1.85625 -2.444953 -1 0 0
7.1101 2.26875 -2.863203 -1 0 0
7.1101 2.0625 -2.654078 -1 0 0
7.1101 1.85625 -2.654078 -1 0 0
7.1101 1.85625 -2.863203 -1 0 0
7.1101 2.26875 -3.281453 -1 0 0
7.1101 2.0625 -3.072328 -1 0 0
7.1101 2.26875 -3.072328 -1 0 0
3.006975 3.3 -2.188328 0 -1 0
2.96635 3.3 -2.026703 0 -0.6168096 -0.7871124
3.088225 3.3 -2.511578 0 -1 0
3.0476 3.3 -2.349953 0 -1 0
3.51885 3.3 -2.026703 0 -0.6168095 -0.7871124
3.283225 3.3 -2.188328 0 -1 0
3.559475 3.3 -2.188328 0 -1 0
3.250725 3.3 -3.158078 0 -1 0
3.2101 3.3 -2.996453 0 -1 0
3.68135 3.3 -2.673203 0 -1 0
3.445725 3.3 -2.834828 0 -1 0
3.721975 3.3 -2.834828 0 -1 0
3.169475 3.3 -2.834828 0 -1 0
3.12885 3.3 -2.673203 0 -1 0
4.62385 3.3 -2.026703 0 -0.6168095 -0.7871124
4.388225 3.3 -2.188328 0 -1 0
4.664475 3.3 -2.188328 0 -1 0
3.835725 3.3 -2.188328 0 -1 0
4.111975 3.3 -2.188328 0 -1 0
4.07135 3.3 -2.026703 0 -0.6168095 -0.7871124
4.193225 3.3 -2.511578 0 -1 0
4.1526 3.3 -2.349953 0 -1 0
3.916975 3.3 -2.511578 0 -1 0
3.364475 3.3 -2.511578 0 -1 0
3.640725 3.3 -2.511578 0 -1 0
3.6001 3.3 -2.349953 0 -1 0
3.575725 3.3 -4.451078 0 -1 0
3.5351 3.3 -4.289453 0 -1 0
4.00635 3.3 -3.966203 0 -1 0
3.770725 3.3 -4.127828 0 -1 0
4.046975 3.3 -4.127828 0 -1 0
3.494475 3.3 -4.127828 0 -1 0
3.45385 3.3 -3.966203 0 -1 0
4.94885 3.3 -3.319703 0 -1 0
4.713225 3.3 -3.481328 0 -1 0
4.989475 3.3 -3.481328 0 -1 0
4.160725 3.3 -3.481328 0 -1 0
4.436975 3.3 -3.481328 0 -1 0
4.39635 3.3 -3.319703 0 -1 0
4.518225 3.3 -3.804578 0 -1 0
4.4776 3.3 -3.642953 0 -1 0
4.241975 3.3 -3.804578 0 -1 0
3.331975 3.3 -3.481328 0 -1 0
3.29135 3.3 -3.319703 0 -1 0
3.413225 3.3 -3.804578 0 -1 0
3.3726 3.3 -3.642953 0 -1 0
3.84385 3.3 -3.319703 0 -1 0
3.608225 3.3 -3.481328 0 -1 0
3.884475 3.3 -3.481328 0 -1 0
3.965725 3.3 -3.804578 0 -1 0
3.9251 3.3 -3.642953 0 -1 0
3.689475 3.3 -3.804578 0 -1 0
6.83385 3.3 -2.026703 0 -0.6168095 -0.7871124
6.598225 3.3 -2.188328 0 -1 0
6.874475 3.3 -2.188328 0 -1 0
6.045725 3.3 -2.188328 0 -1 0
6.321975 3.3 -2.188328 0 -1 0
6.28135 3.3 -2.026703 0 -0.6168095 -0.7871124
6.403225 3.3 -2.511578 0 -1 0
6.3626 3.3 -2.349953 0 -1 0
6.126975 3.3 -2.511578 0 -1 0
4.940725 3.3 -2.188328 0 -1 0
5.216975 3.3 -2.188328 0 -1 0
5.17635 3.3 -2.026703 0 -0.6168095 -0.7871124
5.298225 3.3 -2.511578 0 -1 0
5.2576 3.3 -2.349953 0 -1 0
5.021975 3.3 -2.511578 0 -1 0
5.72885 3.3 -2.026703 0 -0.6168095 -0.7871124
5.493225 3.3 -2.188328 0 -1 0
5.769475 3.3 -2.188328 0 -1 0
5.460725 3.3 -3.158078 0 -1 0
5.4201 3.3 -2.996453 0 -1 0
5.184475 3.3 -3.158078 0 -1 0
5.89135 3.3 -2.673203 0 -1 0
5.655725 3.3 -2.834828 0 -1 0
5.931975 3.3 -2.834828 0 -1 0
5.103225 3.3 -2.834828 0 -1 0
5.379475 3.3 -2.834828 0 -1 0
5.33885 3.3 -2.673203 0 -1 0
5.8101 3.3 -2.349953 0 -1 0
5.574475 3.3 -2.511578 0 -1 0
5.850725 3.3 -2.511578 0 -1 0
3.526975 3.3 -3.158078 0 -1 0
4.079475 3.3 -3.158078 0 -1 0
3.803225 3.3 -3.158078 0 -1 0
3.7626 3.3 -2.996453 0 -1 0
3.998225 3.3 -2.834828 0 -1 0
4.908225 3.3 -3.158078 0 -1 0
4.826975 3.3 -2.834828 0 -1 0
4.8676 3.3 -2.996453 0 -1 0
4.631975 3.3 -3.158078 0 -1 0
4.355725 3.3 -3.158078 0 -1 0
4.7051 3.3 -2.349953 0 -1 0
4.23385 3.3 -2.673203 0 -1 0
4.469475 3.3 -2.511578 0 -1 0
4.745725 3.3 -2.511578 0 -1 0
4.78635 3.3 -2.673203 0 -1 0
4.3151 3.3 -2.996453 0 -1 0
4.550725 3.3 -2.834828 0 -1 0
4.274475 3.3 -2.834828 0 -1 0
3.81135 3.3 -4.498578 0 -1 0
4.2826 3.3 -4.593578 0 -1 0
4.046975 3.3 -4.546078 0 -1 0
4.046975 3.3 -4.336953 0 -1 0
4.2826 3.3 -4.175328 0 -1 0
5.2251 3.3 -4.783578 0 -1 0
4.989475 3.3 -4.736078 0 -1 0
4.989475 3.3 -4.317828 0 -1 0
4.989475 3.3 -4.526953 0 -1 0
5.2251 3.3 -4.365328 0 -1 0
4.75385 3.3 -4.688578 0 -1 0
4.518225 3.3 -4.641078 0 -1 0
4.989475 3.3 -3.690453 0 -1 0
5.2251 3.3 -3.528828 0 -1 0
4.518225 3.3 -4.013703 0 -1 0
4.75385 3.3 -3.852078 0 -1 0
5.2251 3.3 -3.947078 0 -1 0
4.989475 3.3 -3.899578 0 -1 0
4.989475 3.3 -4.108703 0 -1 0
4.518225 3.3 -4.431953 0 -1 0
4.75385 3.3 -4.270328 0 -1 0
4.518225 3.3 -4.222828 0 -1 0
6.874475 3.3 -5.116078 0 -1 0
6.874475 3.3 -4.697828 0 -1 0
6.874475 3.3 -4.906953 0 -1 0
6.63885 3.3 -5.068578 0 -1 0
6.403225 3.3 -5.021078 0 -1 0
6.874475 3.3 -3.861328 0 -1 0
6.874475 3.3 -4.070453 0 -1 0
6.403225 3.3 -4.393703 0 -1 0
6.63885 3.3 -4.232078 0 -1 0
6.403225 3.3 -4.184578 0 -1 0
6.874475 3.3 -4.279578 0 -1 0
6.874475 3.3 -4.488703 0 -1 0
5.69635 3.3 -4.878578 0 -1 0
5.460725 3.3 -4.831078 0 -1 0
6.1676 3.3 -4.973578 0 -1 0
5.931975 3.3 -4.926078 0 -1 0
5.931975 3.3 -4.507828 0 -1 0
5.931975 3.3 -4.716953 0 -1 0
6.1676 3.3 -4.555328 0 -1 0
6.63885 3.3 -4.650328 0 -1 0
6.403225 3.3 -4.602828 0 -1 0
6.403225 3.3 -4.811953 0 -1 0
6.874475 3.3 -2.397453 0 -1 0
6.403225 3.3 -2.720703 0 -1 0
6.63885 3.3 -2.559078 0 -1 0
6.874475 3.3 -2.606578 0 -1 0
6.874475 3.3 -2.815703 0 -1 0
5.460725 3.3 -3.367203 0 -1 0
5.69635 3.3 -3.205578 0 -1 0
6.1676 3.3 -3.300578 0 -1 0
5.931975 3.3 -3.253078 0 -1 0
5.931975 3.3 -3.462203 0 -1 0
5.931975 3.3 -3.043953 0 -1 0
6.1676 3.3 -2.882328 0 -1 0
6.874475 3.3 -3.443078 0 -1 0
6.874475 3.3 -3.652203 0 -1 0
6.874475 3.3 -3.024828 0 -1 0
6.874475 3.3 -3.233953 0 -1 0
6.403225 3.3 -3.557203 0 -1 0
6.63885 3.3 -3.395578 0 -1 0
6.403225 3.3 -3.348078 0 -1 0
6.403225 3.3 -2.929828 0 -1 0
6.403225 3.3 -3.138953 0 -1 0
6.63885 3.3 -2.977328 0 -1 0
5.460725 3.3 -4.621953 0 -1 0
5.931975 3.3 -4.298703 0 -1 0
5.69635 3.3 -4.460328 0 -1 0
5.460725 3.3 -4.412828 0 -1 0
5.460725 3.3 -4.203703 0 -1 0
6.63885 3.3 -3.813828 0 -1 0
6.1676 3.3 -3.718828 0 -1 0
6.403225 3.3 -3.766328 0 -1 0
6.403225 3.3 -3.975453 0 -1 0
6.1676 3.3 -4.137078 0 -1 0
5.460725 3.3 -3.576328 0 -1 0
5.460725 3.3 -3.994578 0 -1 0
5.460725 3.3 -3.785453 0 -1 0
5.69635 3.3 -3.623828 0 -1 0
5.931975 3.3 -3.671328 0 -1 0
5.931975 3.3 -4.089578 0 -1 0
5.931975 3.3 -3.880453 0 -1 0
5.69635 3.3 -4.042078 0 -1 0
2.96635 3.09375 -2.026703 0 0 -1
3.51885 3.09375 -2.026703 0 0 -1
3.2426 3.09375 -2.026703 0 0 -1
2.96635 2.8875 -2.026703 0 0 -1
2.96635 2.68125 -2.026703 0 0 -1
4.62385 3.09375 -2.026703 0 0 -1
4.3476 3.09375 -2.026703 0 0 -1
3.7951 2.68125 -2.026703 0 0 -1
4.07135 2.8875 -2.026703 0 0 -1
4.07135 2.68125 -2.026703 0 0 -1
4.07135 3.09375 -2.026703 0 0 -1
3.7951 3.09375 -2.026703 0 0 -1
2.96635 2.0625 -2.026703 0 0 -1
2.96635 1.85625 -2.026703 0 0 -1
2.96635 2.475 -2.026703 0 0 -1
2.96635 2.26875 -2.026703 0 0 -1
3.51885 2.26875 -2.026703 0 0 -1
3.2426 2.26875 -2.026703 0 0 -1
3.51885 2.475 -2.026703 0 0 -1
3.51885 2.8875 -2.026703 0 0 -1
3.51885 2.68125 -2.026703 0 0 -1
3.2426 2.68125 -2.026703 0 0 -1
6.83385 3.09375 -2.026703 0 0 -1
6.5576 3.09375 -2.026703 0 0 -1
6.0051 2.68125 -2.026703 0 0 -1
6.28135 2.8875 -2.026703 0 0 -1
6.28135 2.68125 -2.026703 0 0 -1
6.28135 3.09375 -2.026703 0 0 -1
6.0051 3.09375 -2.026703 0 0 -1
4.9001 1.85625 -2.026703 0 0 -1
5.17635 2.0625 -2.026703 0 0 -1
5.17635 1.85625 -2.026703 0 0 -1
5.17635 2.475 -2.026703 0 0 -1
5.17635 2.26875 -2.026703 0 0 -1
4.9001 2.26875 -2.026703 0 0 -1
5.72885 2.26875 -2.026703 0 0 -1
5.4526 2.26875 -2.026703 0 0 -1
5.72885 2.475 -2.026703 0 0 -1
5.17635 3.09375 -2.026703 0 0 -1
4.9001 3.09375 -2.026703 0 0 -1
5.72885 3.09375 -2.026703 0 0 -1
5.4526 3.09375 -2.026703 0 0 -1
4.9001 2.68125 -2.026703 0 0 -1
5.17635 2.8875 -2.026703 0 0 -1
5.17635 2.68125 -2.026703 0 0 -1
5.72885 2.68125 -2.026703 0 0 -1
5.4526 2.68125 -2.026703 0 0 -1
5.72885 2.8875 -2.026703 0 0 -1
2.96635 0.4125 -2.026703 0 0 -1
2.96635 0.20625 -2.026703 0 0 -1
2.96635 0.825 -2.026703 0 0 -1
2.96635 0.61875 -2.026703 0 0 -1
3.51885 0.61875 -2.026703 0 0 -1
3.2426 0.61875 -2.026703 0 0 -1
3.51885 0.825 -2.026703 0 0 -1
2.96635 1.65 -2.026703 0 0 -1
2.96635 1.44375 -2.026703 0 0 -1
3.51885 1.44375 -2.026703 0 0 -1
3.2426 1.44375 -2.026703 0 0 -1
3.51885 1.65 -2.026703 0 0 -1
2.96635 1.2375 -2.026703 0 0 -1
2.96635 1.03125 -2.026703 0 0 -1
4.62385 1.44375 -2.026703 0 0 -1
4.3476 1.44375 -2.026703 0 0 -1
4.62385 1.65 -2.026703 0 0 -1
3.7951 1.03125 -2.026703 0 0 -1
4.07135 1.2375 -2.026703 0 0 -1
4.07135 1.03125 -2.026703 0 0 -1
4.07135 1.65 -2.026703 0 0 -1
4.07135 1.44375 -2.026703 0 0 -1
3.7951 1.44375 -2.026703 0 0 -1
3.2426 1.03125 -2.026703 0 0 -1
3.51885 1.2375 -2.026703 0 0 -1
3.51885 1.03125 -2.026703 0 0 -1
4.62385 2.8875 -2.026703 0 0 -1
4.62385 2.475 -2.026703 0 0 -1
4.62385 2.68125 -2.026703 0 0 -1
4.3476 2.68125 -2.026703 0 0 -1
4.07135 2.475 -2.026703 0 0 -1
4.62385 1.85625 -2.026703 0 0 -1
4.07135 1.85625 -2.026703 0 0 -1
4.3476 1.85625 -2.026703 0 0 -1
4.62385 2.0625 -2.026703 0 0 -1
4.62385 2.26875 -2.026703 0 0 -1
3.2426 1.85625 -2.026703 0 0 -1
3.7951 2.26875 -2.026703 0 0 -1
3.51885 2.0625 -2.026703 0 0 -1
3.51885 1.85625 -2.026703 0 0 -1
3.7951 1.85625 -2.026703 0 0 -1
4.3476 2.26875 -2.026703 0 0 -1
4.07135 2.0625 -2.026703 0 0 -1
4.07135 2.26875 -2.026703 0 0 -1
6.83385 2.8875 -2.026703 0 0 -1
6.83385 2.475 -2.026703 0 0 -1
6.83385 2.68125 -2.026703 0 0 -1
6.5576 2.68125 -2.026703 0 0 -1
6.28135 2.475 -2.026703 0 0 -1
6.83385 1.65 -2.026703 0 0 -1
6.83385 1.85625 -2.026703 0 0 -1
6.28135 1.85625 -2.026703 0 0 -1
6.5576 1.85625 -2.026703 0 0 -1
6.28135 1.65 -2.026703 0 0 -1
6.83385 2.0625 -2.026703 0 0 -1
6.83385 2.26875 -2.026703 0 0 -1
5.4526 1.85625 -2.026703 0 0 -1
5.17635 1.65 -2.026703 0 0 -1
6.0051 2.26875 -2.026703 0 0 -1
5.72885 2.0625 -2.026703 0 0 -1
5.72885 1.65 -2.026703 0 0 -1
5.72885 1.85625 -2.026703 0 0 -1
6.0051 1.85625 -2.026703 0 0 -1
6.5576 2.26875 -2.026703 0 0 -1
6.28135 2.0625 -2.026703 0 0 -1
6.28135 2.26875 -2.026703 0 0 -1
6.83385 0.20625 -2.026703 0 0 -1
6.28135 0.20625 -2.026703 0 0 -1
6.5576 0.20625 -2.026703 0 0 -1
6.83385 0.4125 -2.026703 0 0 -1
6.83385 0.61875 -2.026703 0 0 -1
5.17635 0.20625 -2.026703 0 0 -1
5.4526 0.20625 -2.026703 0 0 -1
6.0051 0.61875 -2.026703 0 0 -1
5.72885 0.4125 -2.026703 0 0 -1
5.72885 0.61875 -2.026703 0 0 -1
5.72885 0.20625 -2.026703 0 0 -1
6.0051 0.20625 -2.026703 0 0 -1
6.83385 1.2375 -2.026703 0 0 -1
6.83385 1.44375 -2.026703 0 0 -1
6.83385 0.825 -2.026703 0 0 -1
6.83385 1.03125 -2.026703 0 0 -1
6.28135 1.03125 -2.026703 0 0 -1
6.5576 1.03125 -2.026703 0 0 -1
6.28135 0.825 -2.026703 0 0 -1
6.28135 0.4125 -2.026703 0 0 -1
6.28135 0.61875 -2.026703 0 0 -1
6.5576 0.61875 -2.026703 0 0 -1
3.2426 0.20625 -2.026703 0 0 -1
3.7951 0.61875 -2.026703 0 0 -1
3.51885 0.4125 -2.026703 0 0 -1
3.51885 0.20625 -2.026703 0 0 -1
3.7951 0.20625 -2.026703 0 0 -1
4.9001 1.44375 -2.026703 0 0 -1
4.62385 1.2375 -2.026703 0 0 -1
4.62385 0.825 -2.026703 0 0 -1
4.62385 1.03125 -2.026703 0 0 -1
4.9001 1.03125 -2.026703 0 0 -1
4.3476 1.03125 -2.026703 0 0 -1
4.07135 0.825 -2.026703 0 0 -1
4.62385 0.20625 -2.026703 0 0 -1
4.9001 0.20625 -2.026703 0 0 -1
4.07135 0.20625 -2.026703 0 0 -1
4.3476 0.20625 -2.026703 0 0 -1
4.9001 0.61875 -2.026703 0 0 -1
4.62385 0.4125 -2.026703 0 0 -1
4.62385 0.61875 -2.026703 0 0 -1
4.07135 0.61875 -2.026703 0 0 -1
4.3476 0.61875 -2.026703 0 0 -1
4.07135 0.4125 -2.026703 0 0 -1
6.5576 1.44375 -2.026703 0 0 -1
6.0051 1.03125 -2.026703 0 0 -1
6.28135 1.2375 -2.026703 0 0 -1
6.28135 1.44375 -2.026703 0 0 -1
6.0051 1.44375 -2.026703 0 0 -1
5.17635 0.4125 -2.026703 0 0 -1
5.17635 0.825 -2.026703 0 0 -1
5.17635 0.61875 -2.026703 0 0 -1
5.4526 0.61875 -2.026703 0 0 -1
5.72885 0.825 -2.026703 0 0 -1
5.17635 1.44375 -2.026703 0 0 -1
5.72885 1.44375 -2.026703 0 0 -1
5.4526 1.44375 -2.026703 0 0 -1
5.17635 1.2375 -2.026703 0 0 -1
5.17635 1.03125 -2.026703 0 0 -1
5.72885 1.03125 -2.026703 0 0 -1
5.4526 1.03125 -2.026703 0 0 -1
5.72885 1.2375 -2.026703 0 0 -1
-5.4874 3.3 -0.862703 0 -0.1321634 -0.991228
-5.4874 3.09375 -0.862703 0 0 -1
-5.7299 3.09375 -0.862703 0.758069 0 -0.6521745
-5.0024 3.09375 -0.862703 0 0 -1
-5.2449 3.09375 -0.862703 0 0 -1
-5.0024 3.3 -0.862703 0 -0.1321634 -0.991228
-5.7299 2.68125 -0.862703 0.758069 0 -0.6521745
-5.4874 2.8875 -0.862703 0 0 -1
-5.4874 2.68125 -0.862703 0 0 -1
-4.0324 3.09375 -0.862703 0 0 -1
-4.2749 3.09375 -0.862703 0 0 -1
-4.0324 3.3 -0.862703 0 -0.1321634 -0.991228
-4.7599 2.68125 -0.862703 0 0 -1
-4.5174 2.8875 -0.862703 0 0 -1
-4.5174 2.68125 -0.862703 0 0 -1
-4.5174 3.3 -0.862703 0 -0.1321634 -0.991228
-4.5174 3.09375 -0.862703 0 0 -1
-4.7599 3.09375 -0.862703 0 0 -1
-5.7299 1.85625 -0.862703 0.758069 0 -0.6521745
-5.4874 2.0625 -0.862703 0 0 -1
-5.4874 1.85625 -0.862703 0 0 -1
-5.4874 2.475 -0.862703 0 0 -1
-5.4874 2.26875 -0.862703 0 0 -1
-5.7299 2.26875 -0.862703 0.758069 0 -0.6521745
-5.0024 2.26875 -0.862703 0 0 -1
-5.2449 2.26875 -0.862703 0 0 -1
-5.0024 2.475 -0.862703 0 0 -1
-5.0024 2.8875 -0.862703 0 0 -1
-5.0024 2.68125 -0.862703 0 0 -1
-5.2449 2.68125 -0.862703 0 0 -1
-2.0924 3.09375 -0.862703 0 0 -1
-2.3349 3.09375 -0.862703 0 0 -1
-2.0924 3.3 -0.862703 0 -0.1321634 -0.991228
-2.8199 2.68125 -0.862703 0 0 -1
-2.5774 2.8875 -0.862703 0 0 -1
-2.5774 2.68125 -0.862703 0 0 -1
-2.5774 3.3 -0.862703 0 -0.1321633 -0.991228
-2.5774 3.09375 -0.862703 0 0 -1
-2.8199 3.09375 -0.862703 0 0 -1
-3.7899 1.85625 -0.862703 0 0 -1
-3.5474 2.0625 -0.862703 0 0 -1
-3.5474 1.85625 -0.862703 0 0 -1
-3.5474 2.475 -0.862703 0 0 -1
-3.5474 2.26875 -0.862703 0 0 -1
-3.7899 2.26875 -0.862703 0 0 -1
-3.0624 2.26875 -0.862703 0 0 -1
-3.3049 2.26875 -0.862703 0 0 -1
-3.0624 2.475 -0.862703 0 0 -1
-3.5474 3.3 -0.862703 0 -0.1321634 -0.991228
-3.5474 3.09375 -0.862703 0 0 -1
-3.7899 3.09375 -0.862703 0 0 -1
-3.0624 3.09375 -0.862703 0 0 -1
-3.3049 3.09375 -0.862703 0 0 -1
-3.0624 3.3 -0.862703 0 -0.1321634 -0.991228
-3.7899 2.68125 -0.862703 0 0 -1
-3.5474 2.8875 -0.862703 0 0 -1
-3.5474 2.68125 -0.862703 0 0 -1
-3.0624 2.68125 -0.862703 0 0 -1
-3.3049 2.68125 -0.862703 0 0 -1
-3.0624 2.8875 -0.862703 0 0 -1
-5.7299 0.20625 -0.862703 0.758069 0 -0.6521745
-5.4874 0.4125 -0.862703 0 0 -1
-5.4874 0.20625 -0.862703 0 0 -1
-5.4874 0.825 -0.862703 0 0 -1
-5.4874 0.61875 -0.862703 0 0 -1
-5.7299 0.61875 -0.862703 0.758069 0 -0.6521745
-5.0024 0.61875 -0.862703 0 0 -1
-5.2449 0.61875 -0.862703 0 0 -1
-5.0024 0.825 -0.862703 0 0 -1
-5.4874 1.65 -0.862703 0 0 -1
-5.4874 1.44375 -0.862703 0 0 -1
-5.7299 1.44375 -0.862703 0.758069 0 -0.6521745
-5.0024 1.44375 -0.862703 0 0 -1
-5.2449 1.44375 -0.862703 0 0 -1
-5.0024 1.65 -0.862703 0 0 -1
-5.7299 1.03125 -0.862703 0.758069 0 -0.6521745
-5.4874 1.2375 -0.862703 0 0 -1
-5.4874 1.03125 -0.862703 0 0 -1
-4.0324 1.44375 -0.862703 0 0 -1
-4.2749 1.44375 -0.862703 0 0 -1
-4.0324 1.65 -0.862703 0 0 -1
-4.7599 1.03125 -0.862703 0 0 -1
-4.5174 1.2375 -0.862703 0 0 -1
-4.5174 1.03125 -0.862703 0 0 -1
-4.5174 1.65 -0.862703 0 0 -1
-4.5174 1.44375 -0.862703 0 0 -1
-4.7599 1.44375 -0.862703 0 0 -1
-5.2449 1.03125 -0.862703 0 0 -1
-5.0024 1.2375 -0.862703 0 0 -1
-5.0024 1.03125 -0.862703 0 0 -1
-4.0324 2.8875 -0.862703 0 0 -1
-4.0324 2.475 -0.862703 0 0 -1
-4.0324 2.68125 -0.862703 0 0 -1
-4.2749 2.68125 -0.862703 0 0 -1
-4.5174 2.475 -0.862703 0 0 -1
-4.0324 1.85625 -0.862703 0 0 -1
-4.5174 1.85625 -0.862703 0 0 -1
-4.2749 1.85625 -0.862703 0 0 -1
-4.0324 2.0625 -0.862703 0 0 -1
-4.0324 2.26875 -0.862703 0 0 -1
-5.2449 1.85625 -0.862703 0 0 -1
-4.7599 2.26875 -0.862703 0 0 -1
-5.0024 2.0625 -0.862703 0 0 -1
-5.0024 1.85625 -0.862703 0 0 -1
-4.7599 1.85625 -0.862703 0 0 -1
-4.2749 2.26875 -0.862703 0 0 -1
-4.5174 2.0625 -0.862703 0 0 -1
-4.5174 2.26875 -0.862703 0 0 -1
-1.8499 3.09375 -0.862703 -0.1126795 0 -0.9936314
-2.0924 2.8875 -0.862703 0 0 -1
-2.0924 2.475 -0.862703 0 0 -1
-2.0924 2.68125 -0.862703 0 0 -1
-1.8499 2.68125 -0.862703 -0.1126795 0 -0.9936314
-2.3349 2.68125 -0.862703 0 0 -1
-2.5774 2.475 -0.862703 0 0 -1
-2.0924 1.65 -0.862703 0 0 -1
-2.0924 1.85625 -0.862703 0 0 -1
-1.8499 1.85625 -0.862703 -0.1126795 0 -0.9936314
-2.5774 1.85625 -0.862703 0 0 -1
-2.3349 1.85625 -0.862703 0 0 -1
-2.5774 1.65 -0.862703 0 0 -1
-1.8499 2.26875 -0.862703 -0.1126795 0 -0.9936314
-2.0924 2.0625 -0.862703 0 0 -1
-2.0924 2.26875 -0.862703 0 0 -1
-3.3049 1.85625 -0.862703 0 0 -1
-3.5474 1.65 -0.862703 0 0 -1
-2.8199 2.26875 -0.862703 0 0 -1
-3.0624 2.0625 -0.862703 0 0 -1
-3.0624 1.65 -0.862703 0 0 -1
-3.0624 1.85625 -0.862703 0 0 -1
-2.8199 1.85625 -0.862703 0 0 -1
-2.3349 2.26875 -0.862703 0 0 -1
-2.5774 2.0625 -0.862703 0 0 -1
-2.5774 2.26875 -0.862703 0 0 -1
-2.0924 0 -0.862703 0 0.1321634 -0.991228
-2.0924 0.20625 -0.862703 0 0 -1
-1.8499 0.20625 -0.862703 -0.1126795 0 -0.9936314
-2.5774 0.20625 -0.862703 0 0 -1
-2.3349 0.20625 -0.862703 0 0 -1
-2.5774 0 -0.862703 0 0.1321634 -0.991228
-1.8499 0.61875 -0.862703 -0.1126795 0 -0.9936314
-2.0924 0.4125 -0.862703 0 0 -1
-2.0924 0.61875 -0.862703 0 0 -1
-3.5474 0.20625 -0.862703 0 0 -1
-3.3049 0.20625 -0.862703 0 0 -1
-3.5474 0 -0.862703 0 0.1321634 -0.991228
-2.8199 0.61875 -0.862703 0 0 -1
-3.0624 0.4125 -0.862703 0 0 -1
-3.0624 0.61875 -0.862703 0 0 -1
-3.0624 0 -0.862703 0 0.1321634 -0.991228
-3.0624 0.20625 -0.862703 0 0 -1
-2.8199 0.20625 -0.862703 0 0 -1
-1.8499 1.44375 -0.862703 -0.1126795 0 -0.9936314
-2.0924 1.2375 -0.862703 0 0 -1
-2.0924 1.44375 -0.862703 0 0 -1
-2.0924 0.825 -0.862703 0 0 -1
-2.0924 1.03125 -0.862703 0 0 -1
-1.8499 1.03125 -0.862703 -0.1126795 0 -0.9936314
-2.5774 1.03125 -0.862703 0 0 -1
-2.3349 1.03125 -0.862703 0 0 -1
-2.5774 0.825 -0.862703 0 0 -1
-2.5774 0.4125 -0.862703 0 0 -1
-2.5774 0.61875 -0.862703 0 0 -1
-2.3349 0.61875 -0.862703 0 0 -1
-5.2449 0.20625 -0.862703 0 0 -1
-5.4874 0 -0.862703 0 0.1321634 -0.991228
-4.7599 0.61875 -0.862703 0 0 -1
-5.0024 0.4125 -0.862703 0 0 -1
-5.0024 0 -0.862703 0 0.1321634 -0.991228
-5.0024 0.20625 -0.862703 0 0 -1
-4.7599 0.20625 -0.862703 0 0 -1
-3.7899 1.44375 -0.862703 0 0 -1
-4.0324 1.2375 -0.862703 0 0 -1
-4.0324 0.825 -0.862703 0 0 -1
-4.0324 1.03125 -0.862703 0 0 -1
-3.7899 1.03125 -0.862703 0 0 -1
-4.2749 1.03125 -0.862703 0 0 -1
-4.5174 0.825 -0.862703 0 0 -1
-4.0324 0 -0.862703 0 0.1321634 -0.991228
-4.0324 0.20625 -0.862703 0 0 -1
-3.7899 0.20625 -0.862703 0 0 -1
-4.5174 0.20625 -0.862703 0 0 -1
-4.2749 0.20625 -0.862703 0 0 -1
-4.5174 0 -0.862703 0 0.1321634 -0.991228
-3.7899 0.61875 -0.862703 0 0 -1
-4.0324 0.4125 -0.862703 0 0 -1
-4.0324 0.61875 -0.862703 0 0 -1
-4.5174 0.61875 -0.862703 0 0 -1
-4.2749 0.61875 -0.862703 0 0 -1
-4.5174 0.4125 -0.862703 0 0 -1
-2.3349 1.44375 -0.862703 0 0 -1
-2.8199 1.03125 -0.862703 0 0 -1
-2.5774 1.2375 -0.862703 0 0 -1
-2.5774 1.44375 -0.862703 0 0 -1
-2.8199 1.44375 -0.862703 0 0 -1
-3.5474 0.4125 -0.862703 0 0 -1
-3.5474 0.825 -0.862703 0 0 -1
-3.5474 0.61875 -0.862703 0 0 -1
-3.3049 0.61875 -0.862703 0 0 -1
-3.0624 0.825 -0.862703 0 0 -1
-3.5474 1.44375 -0.862703 0 0 -1
-3.0624 1.44375 -0.862703 0 0 -1
-3.3049 1.44375 -0.862703 0 0 -1
-3.5474 1.2375 -0.862703 0 0 -1
-3.5474 1.03125 -0.862703 0 0 -1
-3.0624 1.03125 -0.862703 0 0 -1
-3.3049 1.03125 -0.862703 0 0 -1
-3.0624 1.2375 -0.862703 0 0 -1
-1.8499 3.3 -0.8902029 -0.6478764 -0.7617455 0
-1.8499 3.09375 -0.8902029 -1 0 0
-1.8499 3.09375 -0.9452029 -1 0 0
-1.8499 3.09375 -0.9177029 -1 0 0
-1.8499 3.3 -0.9452029 -0.6478764 -0.7617456 0
-1.8499 2.8875 -0.8902029 -1 0 0
-1.8499 2.68125 -0.8902029 -1 0 0
-1.8499 3.09375 -1.055203 -1 0 0
-1.8499 3.09375 -1.027703 -1 0 0
-1.8499 3.3 -1.055203 -0.6478764 -0.7617456 0
-1.8499 2.68125 -0.9727029 -1 0 0
-1.8499 2.8875 -1.000203 -1 0 0
-1.8499 2.68125 -1.000203 -1 0 0
-1.8499 3.3 -1.000203 -0.6478764 -0.7617456 0
-1.8499 3.09375 -1.000203 -1 0 0
-1.8499 3.09375 -0.9727029 -1 0 0
-1.8499 2.0625 -0.8902029 -1 0 0
-1.8499 1.85625 -0.8902029 -1 0 0
-1.8499 2.475 -0.8902029 -1 0 0
-1.8499 2.26875 -0.8902029 -1 0 0
-1.8499 2.26875 -0.9452029 -1 0 0
-1.8499 2.26875 -0.9177029 -1 0 0
-1.8499 2.475 -0.9452029 -1 0 0
-1.8499 2.8875 -0.9452029 -1 0 0
-1.8499 2.68125 -0.9452029 -1 0 0
-1.8499 2.68125 -0.9177029 -1 0 0
-1.8499 3.09375 -1.275203 -1 0 0
-1.8499 3.09375 -1.247703 -1 0 0
-1.8499 3.3 -1.275203 -0.6478764 -0.7617456 0
-1.8499 2.68125 -1.192703 -1 0 0
-1.8499 2.8875 -1.220203 -1 0 0
-1.8499 2.68125 -1.220203 -1 0 0
-1.8499 3.3 -1.220203 -0.6478764 -0.7617456 0
-1.8499 3.09375 -1.220203 -1 0 0
-1.8499 3.09375 -1.192703 -1 0 0
-1.8499 1.85625 -1.082703 -1 0 0
-1.8499 2.0625 -1.110203 -1 0 0
-1.8499 1.85625 -1.110203 -1 0 0
-1.8499 2.475 -1.110203 -1 0 0
-1.8499 2.26875 -1.110203 -1 0 0
-1.8499 2.26875 -1.082703 -1 0 0
-1.8499 2.26875 -1.165203 -1 0 0
-1.8499 2.26875 -1.137703 -1 0 0
-1.8499 2.475 -1.165203 -1 0 0
-1.8499 3.3 -1.110203 -0.6478764 -0.7617456 0
-1.8499 3.09375 -1.110203 -1 0 0
-1.8499 3.09375 -1.082703 -1 0 0
-1.8499 3.09375 -1.165203 -1 0 0
-1.8499 3.09375 -1.137703 -1 0 0
-1.8499 3.3 -1.165203 -0.6478764 -0.7617456 0
-1.8499 2.68125 -1.082703 -1 0 0
-1.8499 2.8875 -1.110203 -1 0 0
-1.8499 2.68125 -1.110203 -1 0 0
-1.8499 2.68125 -1.165203 -1 0 0
-1.8499 2.68125 -1.137703 -1 0 0
-1.8499 2.8875 -1.165203 -1 0 0
-1.8499 0.4125 -0.8902029 -1 0 0
-1.8499 0.20625 -0.8902029 -1 0 0
-1.8499 0.825 -0.8902029 -1 0 0
-1.8499 0.61875 -0.8902029 -1 0 0
-1.8499 0.61875 -0.9452029 -1 0 0
-1.8499 0.61875 -0.9177029 -1 0 0
-1.8499 0.825 -0.9452029 -1 0 0
-1.8499 1.65 -0.8902029 -1 0 0
-1.8499 1.44375 -0.8902029 -1 0 0
-1.8499 1.44375 -0.9452029 -1 0 0
-1.8499 1.44375 -0.9177029 -1 0 0
-1.8499 1.65 -0.9452029 -1 0 0
-1.8499 1.2375 -0.8902029 -1 0 0
-1.8499 1.03125 -0.8902029 -1 0 0
-1.8499 1.44375 -1.055203 -1 0 0
-1.8499 1.44375 -1.027703 -1 0 0
-1.8499 1.65 -1.055203 -1 0 0
-1.8499 1.03125 -0.9727029 -1 0 0
-1.8499 1.2375 -1.000203 -1 0 0
-1.8499 1.03125 -1.000203 -1 0 0
-1.8499 1.65 -1.000203 -1 0 0
-1.8499 1.44375 -1.000203 -1 0 0
-1.8499 1.44375 -0.9727029 -1 0 0
-1.8499 1.03125 -0.9177029 -1 0 0
-1.8499 1.2375 -0.9452029 -1 0 0
-1.8499 1.03125 -0.9452029 -1 0 0
-1.8499 2.8875 -1.055203 -1 0 0
-1.8499 2.475 -1.055203 -1 0 0
-1.8499 2.68125 -1.055203 -1 0 0
-1.8499 2.68125 -1.027703 -1 0 0
-1.8499 2.475 -1.000203 -1 0 0
-1.8499 1.85625 -1.055203 -1 0 0
-1.8499 1.85625 -1.000203 -1 0 0
-1.8499 1.85625 -1.027703 -1 0 0
-1.8499 2.0625 -1.055203 -1 0 0
-1.8499 2.26875 -1.055203 -1 0 0
-1.8499 1.85625 -0.9177029 -1 0 0
-1.8499 2.26875 -0.9727029 -1 0 0
-1.8499 2.0625 -0.9452029 -1 0 0
-1.8499 1.85625 -0.9452029 -1 0 0
-1.8499 1.85625 -0.9727029 -1 0 0
-1.8499 2.26875 -1.027703 -1 0 0
-1.8499 2.0625 -1.000203 -1 0 0
-1.8499 2.26875 -1.000203 -1 0 0
-5.4874 3.3 -0.8902029 0 -1 0
-5.2449 3.3 -0.8902029 0 -1 0
-4.7599 3.3 -0.9452029 0 -1 0
-5.0024 3.3 -0.9177029 0 -1 0
-5.0024 3.3 -0.9452029 0 -1 0
-5.0024 3.3 -0.8902029 0 -1 0
-4.7599 3.3 -0.8902029 0 -1 0
-3.7899 3.3 -1.055203 0 -1 0
-4.0324 3.3 -1.027703 0 -1 0
-4.0324 3.3 -1.055203 0 -1 0
-4.0324 3.3 -0.9727029 0 -1 0
-4.0324 3.3 -1.000203 0 -1 0
-3.7899 3.3 -1.000203 0 -1 0
-4.5174 3.3 -1.000203 0 -1 0
-4.2749 3.3 -1.000203 0 -1 0
-4.5174 3.3 -0.9727029 0 -1 0
-4.0324 3.3 -0.8902029 0 -1 0
-3.7899 3.3 -0.8902029 0 -1 0
-4.5174 3.3 -0.8902029 0 -1 0
-4.2749 3.3 -0.8902029 0 -1 0
-3.7899 3.3 -0.9452029 0 -1 0
-4.0324 3.3 -0.9177029 0 -1 0
-4.0324 3.3 -0.9452029 0 -1 0
-4.5174 3.3 -0.9452029 0 -1 0
-4.2749 3.3 -0.9452029 0 -1 0
-4.5174 3.3 -0.9177029 0 -1 0
-2.0924 3.3 -1.247703 0 -1 0
-2.0924 3.3 -1.275203 0 -1 0
-2.0924 3.3 -1.192703 0 -1 0
-2.0924 3.3 -1.220203 0 -1 0
-2.5774 3.3 -1.220203 0 -1 0
-2.3349 3.3 -1.220203 0 -1 0
-2.5774 3.3 -1.192703 0 -1 0
-2.0924 3.3 -1.082703 0 -1 0
-2.0924 3.3 -1.110203 0 -1 0
-2.5774 3.3 -1.110203 0 -1 0
-2.3349 3.3 -1.110203 0 -1 0
-2.5774 3.3 -1.082703 0 -1 0
-2.0924 3.3 -1.137703 0 -1 0
-2.0924 3.3 -1.165203 0 -1 0
-3.5474 3.3 -1.110203 0 -1 0
-3.3049 3.3 -1.110203 0 -1 0
-3.5474 3.3 -1.082703 0 -1 0
-2.8199 3.3 -1.165203 0 -1 0
-3.0624 3.3 -1.137703 0 -1 0
-3.0624 3.3 -1.165203 0 -1 0
-3.0624 3.3 -1.082703 0 -1 0
-3.0624 3.3 -1.110203 0 -1 0
-2.8199 3.3 -1.110203 0 -1 0
-2.3349 3.3 -1.165203 0 -1 0
-2.5774 3.3 -1.137703 0 -1 0
-2.5774 3.3 -1.165203 0 -1 0
-2.0924 3.3 -0.8902029 0 -1 0
-2.5774 3.3 -0.8902029 0 -1 0
-2.3349 3.3 -0.8902029 0 -1 0
-2.0924 3.3 -0.9177029 0 -1 0
-2.0924 3.3 -0.9452029 0 -1 0
-3.5474 3.3 -0.8902029 0 -1 0
-3.3049 3.3 -0.8902029 0 -1 0
-2.8199 3.3 -0.9452029 0 -1 0
-3.0624 3.3 -0.9177029 0 -1 0
-3.0624 3.3 -0.9452029 0 -1 0
-3.0624 3.3 -0.8902029 0 -1 0
-2.8199 3.3 -0.8902029 0 -1 0
-2.0924 3.3 -1.027703 0 -1 0
