# .PCD v.7 - Point Cloud Data file format
VERSION .7
FIELDS x y z normal_x normal_y normal_z
SIZE 4 4 4 4 4 4
TYPE F F F F F F
COUNT 1 1 1 1 1 1
WIDTH 1155
HEIGHT 1
VIEWPOINT 0 0 0 1 0 0 0
POINTS 1155
DATA ascii
-5.7299 0.9100004 1.927703 -0.949361 0 0.3141875
-5.7299 0.6825004 2.717703 -0.949361 0 0.3141875
-5.7299 0.6825004 2.462703 -0.949361 0 0.3141875
-5.7299 0.9100003 1.417703 -0.8816138 0 -0.4719715
-5.7299 0.4550005 3.507703 -0.8816138 0 -0.4719715
-5.7299 3.195 -7.232298 -0.8816138 0 -0.4719715
-5.7299 3.085 -5.387298 -0.8816139 0 -0.4719715
-5.7299 2.875 -3.037297 0 1 0
-5.7299 2.98 -4.212298 0 1 0
-5.7299 2.985 -4.882298 0 1 0
-5.7299 2.975 -3.542298 0 1 0
-5.7299 2.865 -1.697298 1 0 0
-5.7299 2.01 -3.197298 1 0 0
-5.7299 2.005 -2.782298 1 0 0
-5.7299 2.365 -2.782298 1 0 0
-5.7299 1.645 -2.782298 1 0 0
-5.7299 1.29 -3.197298 1 0 0
-5.7299 2.355 -1.952298 1 0 0
-5.7299 2 -2.367298 1 0 0
-6.0299 2.8625 -1.362298 0 1 0
-6.0299 2.9175 -2.284798 0 1 0
-6.0299 2.915 -1.949798 0 1 0
-6.0299 2.9225 -2.954798 0 1 0
-6.0299 2.92 -2.619798 1 0 0
-6.0299 2.8675 -2.032297 1 0 0
-6.0299 3.025 -3.794798 1 0 0
-6.0299 2.9725 -3.207298 1 0 0
-6.0299 3.0275 -4.129798 1 0 0
-6.0299 2.9325 -4.294798 1 0 0
-6.0299 2.93 -3.959797 1 0 0
-6.0299 2.8775 -3.372298 0.9999999 0 0
-6.0299 3.035 -5.134798 0.5735654 -0.8191597 0
-6.0299 2.9825 -4.547297 0.5735654 -0.8191597 0
-6.0299 3.0375 -5.469798 0.5735654 -0.8191597 0
-6.0299 2.8725 -2.702297 0.5735654 -0.8191597 0
-6.0299 2.9275 -3.624798 0 -1 0
-6.0299 2.925 -3.289798 0 -1 0
-6.0299 3.244999 -7.484798 0 -1 0
-6.0299 3.1925 -6.897298 0 -1 0
-6.0299 3.247499 -7.819798 -1 0 0
-6.0299 3.0825 -5.052298 -1 0 0
-6.0299 3.1375 -5.974798 -1 0 0
-6.0299 3.135 -5.639798 -1 0 0
-6.0299 3.1425 -6.644798 -1 0 0
-6.0299 3.14 -6.309798 -1 0 0
-6.0299 3.0875 -5.722298 -1 0 0
-6.0299 2.9775 -3.877298 -1 0 0
-6.0299 3.0325 -4.799798 0 -1 0
-6.0299 3.03 -4.464798 0 -1 0
-6.0299 3.245001 4.546453 0 -1 0
-6.0299 3.245001 2.827703 0 -1 0
-6.0299 3.300001 3.623953 1 0 0
-6.0299 3.135 1.235203 1 0 0
-6.0299 3.190001 2.031453 1 0 0
-6.0299 3.135001 2.953953 1 0 0
-6.0299 3.3 0.1864525 1 0 0
-6.0299 3.245 1.108953 1 0 0
-6.0299 3.245 -0.6097976 1 0 0
-6.0299 2.97 -1.153548 1 0 0
-6.0299 2.915 -0.2310474 0 -1 0
-6.0299 3.08 -2.998548 0 -1 0
-6.0299 3.025 -2.076048 0 -1 0
-6.0299 3.025001 1.361453 0 -1 0
-6.0299 3.025 -0.3572975 -0.9493623 -0.3141836 0
-6.0299 3.08 0.4389526 -0.9493622 -0.3141836 0
-6.0299 3.299999 -6.688548 -0.9493623 -0.3141836 0
-6.0299 3.245 -5.766048 -0.9493623 -0.3141836 0
-6.0299 3.245 -2.328548 -1 0 0
-6.0299 3.245 -4.047298 -1 0 0
-6.0299 3.3 -3.251048 -1 0 0
-6.0299 3.19 -4.843548 -1 0 0
-6.0299 3.135 -3.921048 -1 0 0
-6.0299 3.135 -0.4835475 -1 0 0
-6.0299 3.135 -2.202298 -1 0 0
-6.0299 3.19 -1.406048 -1 0 0
-6.0299 3.244758 4.878397 -0.8816138 0.4719715 0
-6.0299 3.189516 4.087703 -0.8816138 0.4719715 0
-6.0299 3.244758 4.552009 -0.8816138 0.4719715 0
-6.0299 3.07903 3.159091 -0.8816138 0.4719715 0
-6.0299 3.134273 3.623397 -1 0 0
-6.0299 3.134273 3.949784 -1 0 0
-6.0299 3.134273 2.970622 -1 0 0
-6.0299 3.134273 3.297009 -1 0 0
-6.0299 3.07903 2.506315 -1 0 0
-6.0299 2.85806 1.301866 -1 0 0
-6.0299 2.913302 1.766172 -1 0 0
-6.0299 2.913303 2.09256 -1 0 0
-6.0299 2.913302 1.113397 -1 0 0
-6.0299 2.913302 1.439784 -1 0 0
-6.0299 2.85806 0.6490903 -1 0 0
-6.0299 3.023788 3.021172 -1 0 0
-6.0299 2.968545 2.230478 -1 0 0
-6.0299 3.023788 2.694784 -1 0 0
-6.0299 2.913302 -0.1921541 -1 0 0
-6.0299 2.913302 0.1342336 -1 0 0
-6.0299 2.85806 -0.6564603 -1 0 0
-6.0299 3.023787 1.715621 -1 0 0
-6.0299 2.968545 0.9249274 -1 0 0
-6.0299 3.023787 1.389234 -1 0 0
-6.0299 2.85806 -0.003684996 -1 0 0
-6.0299 2.913302 0.4606212 -1 0 0
-6.0299 2.913302 0.7870089 -1 0 0
-6.0299 3.023788 2.368397 -1 0 0
-6.0299 2.968545 1.577703 -1 0 0
-6.0299 3.023788 2.042009 -1 0 0
-6.0299 0.9299995 -6.037298 -1 0 0
-6.0299 0.8137494 -6.301048 -1 0 0
-6.0299 0.8137494 -6.561048 -1 0 0
-6.0299 0.8137494 -5.781048 -1 0 0
-6.0299 0.8137494 -6.041048 -0.9999999 0 0
-6.0299 0.9299995 -5.517298 -0.9999999 0 0
-6.0299 0.5812493 -7.088548 -0.9999999 0 0
-6.0299 0.6974993 -6.564798 -1 0 0
-6.0299 0.5812494 -6.828548 -1 0 0
-6.0299 0.8137496 -4.741047 -1 0 0
-6.0299 0.8137496 -5.001048 -1 0 0
-6.0299 0.9299996 -4.477297 -1 0 0
-6.0299 0.5812494 -6.048548 -1 0 0
-6.0299 0.6974995 -5.524798 -1 0 0
-6.0299 0.5812495 -5.788548 -1 0 0
-6.0299 0.9299996 -4.997298 -1 0 0
-6.0299 0.8137495 -5.261048 -1 0 0
-6.0299 0.8137495 -5.521048 -1 0 0
-6.0299 0.1162491 -8.143548 -1 0 0
-6.0299 0.2324991 -7.619798 -1 0 0
-6.0299 0.1162491 -7.883548 -1 0 0
-6.0299 0.4649992 -7.092298 -1 0 0
-6.0299 0.3487492 -7.356048 -0.9999999 0 0
-6.0299 0.3487492 -7.616048 -0.9999999 0 0
-6.0299 0.3487493 -6.836048 -0.9999999 0 0
-6.0299 0.3487492 -7.096048 -1 0 0
-6.0299 0.4649993 -6.572298 -1 0 0
-6.0299 0.6974994 -6.044798 -1 0 0
-6.0299 0.5812494 -6.308548 -1 0 0
-6.0299 0.5812494 -6.568548 -1 0 0
-6.0299 0.7962504 2.577703 -1 0 0
-6.0299 0.6825002 1.253953 -1 0 0
-6.0299 0.7962502 0.858953 -1 0 0
-6.0299 0.4550003 2.043953 -1 0 0
-6.0299 0.5687503 1.648953 -1 0 0
-6.0299 0.5687505 3.367703 -1 0 0
-6.0299 0.5687499 -1.788547 -1 0 0
-6.0299 0.5687501 -0.06979711 -1 0 0
-6.0299 0.4549999 -1.393547 -1 0 0
-6.0299 4.320088E-07 3.623953 -1 0 0
-6.0299 0.1137504 3.228953 -1 0 0
-6.0299 0.1137506 4.947703 -1 0 0
-6.0299 0.11375 -0.2085472 -1 0 0
-6.0299 0.1137502 1.510203 -0.9999999 0 0
-6.0299 2.222691E-08 0.1864529 -0.9999999 0 0
-6.0299 0.3412505 4.157703 -0.9999999 0 0
-6.0299 0.2275004 2.833953 -1 0 0
-6.0299 0.3412503 2.438953 -1 0 0
-6.0299 0.1137492 -7.083548 -1 0 0
-6.0299 0.1137494 -5.364798 -1 0 0
-6.0299 -7.97337E-07 -6.688548 -1 0 0
-6.0299 0.3412497 -2.717298 -1 0 0
-6.0299 0.2274995 -4.041048 -1 0 0
-6.0299 0.3412495 -4.436048 -1 0 0
-6.0299 -3.87555E-07 -3.251048 -1 0 0
-6.0299 0.1137496 -3.646048 -1 0 0
-6.0299 0.1137498 -1.927297 -1 0 0
-6.0299 0.3412501 0.720203 -1 0 0
-6.0299 0.2275 -0.6035472 -1 0 0
-6.0299 0.3412499 -0.9985473 -1 0 0
-5.7299 0.8137494 -6.561048 -1 0 0
-5.7299 0.8137494 -6.301048 -0.9999999 0 0
-5.7299 0.9299995 -6.037298 -0.9999999 0 0
-5.7299 0.5812494 -6.828548 -0.9999999 0 0
-5.7299 0.6974993 -6.564798 -1 0 0
-5.7299 0.5812493 -7.088548 -1 0 0
-5.7299 0.9299995 -5.517298 -1 0 0
-5.7299 0.8137494 -6.041048 -1 0 0
-5.7299 0.8137494 -5.781048 -1 0 0
-5.7299 0.1162491 -7.883548 -1 0 0
-5.7299 0.2324991 -7.619798 -1 0 0
-5.7299 0.1162491 -8.143548 -1 0 0
-5.7299 0.4649993 -6.572298 -1 0 0
-5.7299 0.3487492 -7.096048 -0.9999999 0 0
-5.7299 0.3487493 -6.836048 -0.9999999 0 0
-5.7299 0.3487492 -7.616048 -0.9999999 0 0
-5.7299 0.3487492 -7.356048 -1 0 0
-5.7299 0.4649992 -7.092298 -1 0 0
-5.7299 0.9299996 -4.477297 -1 0 0
-5.7299 0.8137496 -5.001048 -1 0 0
-5.7299 0.8137496 -4.741047 -1 0 0
-5.7299 0.8137495 -5.521048 -1 0 0
-5.7299 0.8137495 -5.261048 -1 0 0
-5.7299 0.9299996 -4.997298 -1 0 0
-5.7299 0.5812495 -5.788548 -1 0 0
-5.7299 0.6974995 -5.524798 -1 0 0
-5.7299 0.5812494 -6.048548 -1 0 0
-5.7299 0.5812494 -6.568548 -1 0 0
-5.7299 0.5812494 -6.308548 -1 0 0
-5.7299 0.6974994 -6.044798 -1 0 0
-5.7299 2.85806 -0.6564603 -1 0 0
-5.7299 2.913302 0.1342336 -1 0 0
-5.7299 2.913302 -0.1921541 -1 0 0
-5.7299 2.913302 0.7870089 -1 0 0
-5.7299 2.913302 0.4606212 -1 0 0
-5.7299 2.85806 -0.003684996 -1 0 0
-5.7299 3.023787 1.389234 -1 0 0
-5.7299 2.968545 0.9249274 -1 0 0
-5.7299 3.023787 1.715621 -1 0 0
-5.7299 2.913303 2.09256 -1 0 0
-5.7299 2.913302 1.766172 -0.9999999 0 0
-5.7299 2.85806 1.301866 -0.9999999 0 0
-5.7299 3.023788 2.694784 -0.9999999 0 0
-5.7299 2.968545 2.230478 -1 0 0
-5.7299 3.023788 3.021172 -1 0 0
-5.7299 2.85806 0.6490903 -1 0 0
-5.7299 2.913302 1.439784 -1 0 0
-5.7299 2.913302 1.113397 -1 0 0
-5.7299 3.244758 4.552009 -1 0 0
-5.7299 3.189516 4.087703 -1 0 0
-5.7299 3.244758 4.878397 -1 0 0
-5.7299 3.07903 2.506315 -1 0 0
-5.7299 3.134273 3.297009 -0.9999999 0 0
-5.7299 3.134273 2.970622 -0.9999999 0 0
-5.7299 3.134273 3.949784 -0.9999999 0 0
-5.7299 3.134273 3.623397 -0.9999999 0 0
-5.7299 3.07903 3.159091 -0.9999999 0 0
-5.7299 2.968545 1.577703 -0.9999999 0 0
-5.7299 3.023788 2.368397 -0.9999999 0 0
-5.7299 3.023788 2.042009 -0.9999999 0 0
-5.7299 3.244999 -7.484798 -0.9999999 0 0
-5.7299 3.245 -5.766048 -1 0 0
-5.7299 3.299999 -6.688548 -1 0 0
-5.7299 3.135 -3.921048 -1 0 0
-5.7299 3.19 -4.843548 -1 0 0
-5.7299 3.135 -5.639798 -1 0 0
-5.7299 3.3 -3.251048 -1 0 0
-5.7299 3.245 -4.047298 -1 0 0
-5.7299 3.245 -2.328548 -1 0 0
-5.7299 2.915 -0.2310474 -1 0 0
-5.7299 2.97 -1.153548 -1 0 0
-5.7299 2.915 -1.949798 -1 0 0
-5.7299 3.08 0.4389526 -1 0 0
-5.7299 3.025 -0.3572975 -0.9999999 0 0
-5.7299 3.025001 1.361453 -0.9999999 0 0
-5.7299 3.025 -3.794798 -0.9999999 0 0
-5.7299 3.025 -2.076048 -1 0 0
-5.7299 3.08 -2.998548 -1 0 0
-5.7299 3.300001 3.623953 -1 0 0
-5.7299 3.245001 2.827703 -1 0 0
-5.7299 3.245001 4.546453 -1 0 0
-5.7299 3.245 -0.6097976 -1 0 0
-5.7299 3.245 1.108953 -1 0 0
-5.7299 3.3 0.1864525 -1 0 0
-5.7299 3.135001 2.953953 -1 0 0
-5.7299 3.190001 2.031453 -1 0 0
-5.7299 3.135 1.235203 -1 0 0
-5.7299 3.135 -2.202298 -1 0 0
-5.7299 3.135 -0.4835475 -1 0 0
-5.7299 3.19 -1.406048 -1 0 0
-5.7299 0.7962498 -2.396048 -1 0 0
-5.7299 0.6824999 -1.536047 -1 0 0
-5.7299 0.79625 -0.6772972 -1 0 0
-5.7299 0.4549997 -3.253548 -1 0 0
-5.7299 0.5687498 -2.394797 -1 0 0
-5.7299 0.5687496 -4.113548 -1 0 0
-5.7299 0.5687502 1.042703 -1 0 0
-5.7299 0.56875 -0.6760472 0 0.9999999 0
-5.7299 0.4550001 0.1839528 0 0.9999999 0
-5.7299 -7.97337E-07 -6.688548 0 0.9999999 0
-5.7299 0.1137493 -5.829798 0 0.9999999 0
-5.7299 0.1137491 -7.548548 0 1 0
-5.7299 0.1137497 -2.392298 0 1 0
-5.7299 0.1137495 -4.111048 0 1 0
-5.7299 -3.87555E-07 -3.251048 0 1 0
-5.7299 0.3412493 -5.831048 0 1 0
-5.7299 0.2274994 -4.971048 0 1 0
-5.7299 0.3412496 -4.112298 0 1 0
-5.7299 0.1137506 4.482703 0 1 0
-5.7299 0.1137503 2.763953 0 1 0
-5.7299 4.320088E-07 3.623953 0 1 0
-5.7299 0.3412502 1.043953 0 1 0
-5.7299 0.2275003 1.903953 0 1 0
-5.7299 0.3412504 2.762703 0 -1 0
-5.7299 2.222691E-08 0.1864529 0 -1 0
-5.7299 0.1137501 1.045203 0 -1 0
-5.7299 0.1137499 -0.6735473 0 -1 0
-5.7299 0.3412498 -2.393547 0 -1 0
-5.7299 0.2274999 -1.533547 0 -1 0
-5.7299 0.34125 -0.6747973 0 -1 0
-5.7299 3.247499 -7.819798 0 -1 0
-5.7299 3.1925 -6.897298 0 -0.9999999 0
-5.7299 3.0875 -5.722298 0 -0.9999999 0
-5.7299 3.14 -6.309798 0 -0.9999999 0
-5.7299 3.1425 -6.644798 0 -0.9999999 0
-5.7299 3.1375 -5.974798 0 -1 0
-5.7299 3.0825 -5.052298 0 -1 0
-5.7299 2.8775 -3.372298 0 -1 0
-5.7299 2.93 -3.959797 0 -1 0
-5.7299 2.9325 -4.294798 1 0 0
-5.7299 2.925 -3.289798 1 0 0
-5.7299 2.9275 -3.624798 1 0 0
-5.7299 2.8725 -2.702297 1 0 0
-5.7299 3.0375 -5.469798 1 0 0
-5.7299 2.9825 -4.547297 1 0 0
-5.7299 3.035 -5.134798 1 0 0
-5.7299 2.9175 -2.284798 1 0 0
-5.7299 2.8625 -1.362298 1 0 0
-5.7299 3.0275 -4.129798 0.9999999 0 0
-5.7299 2.9725 -3.207298 0.9999999 0 0
-5.7299 2.8675 -2.032297 0.9999999 0 0
-5.7299 2.92 -2.619798 1 0 0
-5.7299 2.9225 -2.954798 1 0 0
-5.7299 3.0325 -4.799798 1 0 0
-5.7299 2.9775 -3.877298 0.9999999 0 0
-5.7299 3.03 -4.464798 0.9999999 0 0
-6.0299 3.272501 4.944578 0.9999999 0 0
-6.0299 3.272501 4.085203 1 0 0
-6.0299 3.300001 4.483328 1 0 0
-6.0299 3.217501 3.288953 1 0 0
-6.0299 3.245001 3.687078 1 0 0
-6.0299 3.217501 4.148328 1 0 0
-6.0299 3.300001 2.764578 1 0 0
-6.0299 3.272501 3.225828 1 0 0
-6.0299 3.272501 2.366453 1 0 0
-6.0299 3.107501 1.696453 1 0 0
-6.0299 3.135001 2.094578 1 0 0
-6.0299 3.107501 2.555828 1 0 0
-6.0299 3.190001 1.172078 1 0 0
-6.0299 3.1625 1.633328 1 0 0
-6.0299 3.1625 0.7739526 1 0 0
-6.0299 3.162501 3.352078 1 0 0
-6.0299 3.162501 2.492703 1 0 0
-6.0299 3.190001 2.890828 1 0 0
-6.0299 3.3 -0.6729226 1 0 0
-6.0299 3.272501 -0.2116725 1 0 0
-6.0299 3.2725 -1.071048 1 0 0
-6.0299 3.272501 1.507078 1 0 0
-6.0299 3.272501 0.6477026 1 0 0
-6.0299 3.3 1.045828 1 0 0
-6.0299 3.2175 -0.1485475 1 0 0
-6.0299 3.245 0.2495775 1 0 0
-6.0299 3.2175 0.7108276 1 0 0
-6.0299 3.217501 2.429578 1 0 0
-6.0299 3.2175 1.570203 1 0 0
-6.0299 3.245001 1.968328 1 0 0
-6.0299 2.8875 -1.488548 1 0 0
-6.0299 2.915 -1.090423 1 0 0
-6.0299 2.8875 -0.6291724 1 0 0
-6.0299 2.97 -2.012923 1 0 0
-6.0299 2.9425 -1.551672 1 0 0
-6.0299 2.9425 -2.411048 1 0 0
-6.0299 2.942501 0.1670776 1 0 0
-6.0299 2.9425 -0.6922975 1 0 0
-6.0299 2.97 -0.2941724 1 0 0
-6.0299 3.08 -3.857923 1 0 0
-6.0299 3.0525 -3.396673 1 0 0
-6.0299 3.0525 -4.256048 1 0 0
-6.0299 3.0525 -1.677923 1 0 0
-6.0299 3.0525 -2.537298 1 0 0
-6.0299 3.08 -2.139173 1 0 0
-6.0299 2.9975 -3.333548 1 0 0
-6.0299 3.025 -2.935423 1 0 0
-6.0299 2.9975 -2.474173 1 0 0
-6.0299 3.0525 1.759578 1 0 0
-6.0299 3.0525 0.9002027 1 0 0
-6.0299 3.08 1.298328 1 0 0
-6.0299 2.9975 0.1039526 1 0 0
-6.0299 3.025001 0.5020776 1 0 0
-6.0299 2.9975 0.9633277 1 0 0
-6.0299 3.08 -0.4204225 1 0 0
-6.0299 3.0525 0.04082757 1 0 0
-6.0299 3.0525 -0.8185475 1 0 0
-6.0299 2.9975 -1.614798 1 0 0
-6.0299 3.025 -1.216672 1 0 0
-6.0299 2.9975 -0.7554225 1 0 0
-6.0299 3.299999 -7.547924 1 0 0
-6.0299 3.2725 -7.086673 1 0 0
-6.0299 3.2725 -7.946048 1 0 0
-6.0299 3.2725 -5.367923 1 0 0
-6.0299 3.2725 -6.227298 1 0 0
-6.0299 3.3 -5.829173 1 0 0
-6.0299 3.217499 -7.023549 1 0 0
-6.0299 3.244999 -6.625423 1 0 0
-6.0299 3.2175 -6.164173 1 0 0
-6.0299 3.2725 -1.930423 1 0 0
-6.0299 3.2725 -2.789798 1 0 0
-6.0299 3.3 -2.391673 1 0 0
-6.0299 3.2175 -3.586048 1 0 0
-6.0299 3.245 -3.187923 1 0 0
-6.0299 3.2175 -2.726673 1 0 0
-6.0299 3.3 -4.110423 1 0 0
-6.0299 3.2725 -3.649173 1 0 0
-6.0299 3.2725 -4.508548 1 0 0
-6.0299 3.1075 -5.178548 1 0 0
-6.0299 3.135 -4.780423 0.9999999 0 0
-6.0299 3.1075 -4.319173 0.9999999 0 0
-6.0299 3.19 -5.702923 0.9999999 0 0
-6.0299 3.1625 -5.241673 1 0 0
-6.0299 3.1625 -6.101048 1 0 0
-6.0299 3.1625 -3.522923 1 0 0
-6.0299 3.1625 -4.382298 1 0 0
-6.0299 3.19 -3.984173 1 0 0
-6.0299 3.245 -4.906673 1 0 0
-6.0299 3.2175 -4.445423 0.9999999 0 0
-6.0299 3.2175 -5.304798 0.9999999 0 0
-6.0299 3.107501 0.8370776 0.9999999 0 0
-6.0299 3.1075 -0.8816726 1 0 0
-6.0299 3.107501 -0.02229746 1 0 0
-6.0299 3.135 0.3758276 1 0 0
-6.0299 3.1625 -0.08542249 1 0 0
-6.0299 3.1075 -3.459798 1 0 0
-6.0299 3.1625 -2.663548 1 0 0
-6.0299 3.135 -3.061673 1 0 0
-6.0299 3.1075 -2.600423 1 0 0
-6.0299 3.1075 -1.741048 1 0 0
-6.0299 3.245 -1.469173 1 0 0
-6.0299 3.19 -0.5466725 1 0 0
-6.0299 3.2175 -1.007923 1 0 0
-6.0299 3.2175 -1.867298 0.9999999 0 0
-6.0299 3.19 -2.265423 0.9999999 0 0
-6.0299 3.135 -1.342923 0.9999999 0 0
-6.0299 3.1625 -1.804173 1 0 0
-6.0299 3.1625 -0.9447976 1 0 0
-5.7299 3.2725 -7.946048 1 0 0
-5.7299 3.2725 -7.086673 1 0 0
-5.7299 3.299999 -7.547924 1 0 0
-5.7299 3.2175 -6.164173 1 0 0
-5.7299 3.244999 -6.625423 1 0 0
-5.7299 3.217499 -7.023549 1 0 0
-5.7299 3.3 -5.829173 1 0 0
-5.7299 3.2725 -6.227298 1 0 0
-5.7299 3.2725 -5.367923 1 0 0
-5.7299 3.1075 -4.319173 1 0 0
-5.7299 3.135 -4.780423 0.9999999 0 0
-5.7299 3.1075 -5.178548 0.9999999 0 0
-5.7299 3.19 -3.984173 0.9999999 0 0
-5.7299 3.1625 -4.382298 1 0 0
-5.7299 3.1625 -3.522923 1 0 0
-5.7299 3.1625 -6.101048 1 0 0
-5.7299 3.1625 -5.241673 0.9999999 0 0
-5.7299 3.19 -5.702923 0.9999999 0 0
-5.7299 3.3 -2.391673 0.9999999 0 0
-5.7299 3.2725 -2.789798 1 0 0
-5.7299 3.2725 -1.930423 1 0 0
-5.7299 3.2725 -4.508548 1 0 0
-5.7299 3.2725 -3.649173 1 0 0
-5.7299 3.3 -4.110423 1 0 0
-5.7299 3.2175 -2.726673 1 0 0
-5.7299 3.245 -3.187923 1 0 0
-5.7299 3.2175 -3.586048 1 0 0
-5.7299 3.2175 -5.304798 1 0 0
-5.7299 3.2175 -4.445423 1 0 0
-5.7299 3.245 -4.906673 1 0 0
-5.7299 2.8875 -0.6291724 1 0 0
-5.7299 2.915 -1.090423 1 0 0
-5.7299 2.8875 -1.488548 1 0 0
-5.7299 2.97 -0.2941724 1 0 0
-5.7299 2.9425 -0.6922975 1 0 0
-5.7299 2.942501 0.1670776 1 0 0
-5.7299 2.9425 -2.411048 1 0 0
-5.7299 2.9425 -1.551672 1 0 0
-5.7299 2.97 -2.012923 1 0 0
-5.7299 3.08 1.298328 1 0 0
-5.7299 3.0525 0.9002027 0 0 1
-5.7299 3.0525 1.759578 0 0 0.9999999
-5.7299 3.0525 -0.8185475 0 0 1
-5.7299 3.0525 0.04082757 0 0 1
-5.7299 3.08 -0.4204225 0 0 0.9999999
-5.7299 2.9975 0.9633277 0 0 1
-5.7299 3.025001 0.5020776 0 0 1
-5.7299 2.9975 0.1039526 0 0 1
-5.7299 3.0525 -4.256048 -1 0 0
-5.7299 3.0525 -3.396673 -1 0 0
-5.7299 3.08 -3.857923 -1 0 0
-5.7299 2.9975 -2.474173 -1 0 0
-5.7299 3.025 -2.935423 -1 0 0
-5.7299 2.9975 -3.333548 -1 0 0
-5.7299 3.08 -2.139173 -0.9999999 0 0
-5.7299 3.0525 -2.537298 -0.9999999 0 0
-5.7299 3.0525 -1.677923 -0.9999999 0 0
-5.7299 2.9975 -0.7554225 -1 0 0
-5.7299 3.025 -1.216672 -1 0 0
-5.7299 2.9975 -1.614798 -1 0 0
-5.7299 3.300001 4.483328 -1 0 0
-5.7299 3.272501 4.085203 -1 0 0
-5.7299 3.272501 4.944578 -1 0 0
-5.7299 3.272501 2.366453 -0.9999999 0 0
-5.7299 3.272501 3.225828 -0.9999999 0 0
-5.7299 3.300001 2.764578 -0.9999999 0 0
-5.7299 3.217501 4.148328 -1 0 0
-5.7299 3.245001 3.687078 -1 0 0
-5.7299 3.217501 3.288953 -1 0 0
-5.7299 3.2725 -1.071048 -1 0 0
-5.7299 3.272501 -0.2116725 -1 0 0
-5.7299 3.3 -0.6729226 -1 0 0
-5.7299 3.2175 0.7108276 -1 0 0
-5.7299 3.245 0.2495775 -1 0 0
-5.7299 3.2175 -0.1485475 -1 0 0
-5.7299 3.3 1.045828 -1 0 0
-5.7299 3.272501 0.6477026 -1 0 0
-5.7299 3.272501 1.507078 -1 0 0
-5.7299 3.107501 2.555828 -1 0 0
-5.7299 3.135001 2.094578 -1 0 0
-5.7299 3.107501 1.696453 -1 0 0
-5.7299 3.190001 2.890828 -1 0 0
-5.7299 3.162501 2.492703 -1 0 0
-5.7299 3.162501 3.352078 -1 0 0
-5.7299 3.1625 0.7739526 -1 0 0
-5.7299 3.1625 1.633328 -1 0 0
-5.7299 3.190001 1.172078 -1 0 0
-5.7299 3.245001 1.968328 -1 0 0
-5.7299 3.2175 1.570203 -1 0 0
-5.7299 3.217501 2.429578 -1 0 0
-5.7299 3.1075 -3.459798 -1 0 0
-5.7299 3.1075 -1.741048 -1 0 0
-5.7299 3.1075 -2.600423 -1 0 0
-5.7299 3.135 -3.061673 -1 0 0
-5.7299 3.1625 -2.663548 -1 0 0
-5.7299 3.107501 0.8370776 -1 0 0
-5.7299 3.1625 -0.08542249 -1 0 0
-5.7299 3.135 0.3758276 -1 0 0
-5.7299 3.107501 -0.02229746 -1 0 0
-5.7299 3.1075 -0.8816726 -1 0 0
-5.7299 3.245 -1.469173 -1 0 0
-5.7299 3.19 -2.265423 -1 0 0
-5.7299 3.2175 -1.867298 -1 0 0
-5.7299 3.2175 -1.007923 -1 0 0
-5.7299 3.19 -0.5466725 -1 0 0
-5.7299 3.135 -1.342923 -1 0 0
-5.7299 3.1625 -0.9447976 -1 0 0
-5.7299 3.1625 -1.804173 -1 0 0
-5.7299 0.8531249 -1.966672 -1 0 0
-5.7299 0.7962499 -1.536672 -1 0 0
-5.7299 0.8531249 -1.107297 -1 0 0
-5.7299 0.6824998 -2.395422 -1 0 0
-5.7299 0.7393749 -1.966047 -1 0 0
-5.7299 0.7393748 -2.825423 -1 0 0
-5.7299 0.7393751 -0.2472971 -1 0 0
-5.7299 0.7393749 -1.106672 -1 0 0
-5.7299 0.6825 -0.6766722 -1 0 0
-5.7299 0.4549996 -4.112923 -1 0 0
-5.7299 0.5118747 -3.683548 -1 0 0
-5.7299 0.5118746 -4.542922 -1 0 0
-5.7299 0.5118749 -1.964797 -0.9999999 0 0
-5.7299 0.5118747 -2.824172 -0.9999999 0 0
-5.7299 0.4549998 -2.394172 -0.9999999 0 0
-5.7299 0.6256247 -3.684173 -1 0 0
-5.7299 0.5687497 -3.254173 -1 0 0
-5.7299 0.6256248 -2.824798 -1 0 0
-5.7299 0.5118753 1.472703 -1 0 0
-5.7299 0.5118752 0.6133279 -1 0 0
-5.7299 0.4550002 1.043328 -1 0 0
-5.7299 0.6256251 -0.2466722 -1 0 0
-5.7299 0.5687501 0.1833279 -1 0 0
-5.7299 0.6256251 0.612703 -1 0 0
-5.7299 0.455 -0.6754223 -1 0 0
-5.7299 0.5118751 -0.2460472 -1 0 0
-5.7299 0.511875 -1.105422 -1 0 0
-5.7299 0.6256248 -1.965422 -1 0 0
-5.7299 0.5687499 -1.535422 -1 0 0
-5.7299 0.625625 -1.106047 -1 0 0
-5.7299 -8.997824E-07 -7.547923 -1 0 0
-5.7299 0.05687416 -7.118548 -1 0 0
-5.7299 0.05687406 -7.977923 -1 0 0
-5.7299 0.05687436 -5.399798 -0.9999999 0 0
-5.7299 0.05687426 -6.259173 -0.9999999 0 0
-5.7299 -6.948915E-07 -5.829173 -0.9999999 0 0
-5.7299 0.1706242 -7.119173 -1 0 0
-5.7299 0.1137492 -6.689173 -1 0 0
-5.7299 0.1706243 -6.259798 -1 0 0
-5.7299 0.05687477 -1.962297 -1 0 0
-5.7299 0.05687467 -2.821672 -1 0 0
-5.7299 -2.851095E-07 -2.391672 -1 0 0
-5.7299 0.1706246 -3.681673 -1 0 0
-5.7299 0.1137496 -3.251673 -1 0 0
-5.7299 0.1706247 -2.822297 -1 0 0
-5.7299 -4.900005E-07 -4.110423 -1 0 0
-5.7299 0.05687457 -3.681048 -1 0 0
-5.7299 0.05687447 -4.540423 -1 0 0
-5.7299 0.3981244 -5.401673 -1 0 0
-5.7299 0.3412494 -4.971673 -1 0 0
-5.7299 0.3981245 -4.542298 -1 0 0
-5.7299 0.2274993 -5.830423 -0.9999999 0 0
-5.7299 0.2843744 -5.401048 -0.9999999 0 0
-5.7299 0.2843743 -6.260423 -0.9999999 0 0
-5.7299 0.2843746 -3.682298 -1 0 0
-5.7299 0.2843745 -4.541673 -1 0 0
-5.7299 0.2274995 -4.111673 -1 0 0
-5.7299 0.1137494 -4.970423 -1 0 0
-5.7299 0.1706245 -4.541048 -1 0 0
-5.7299 0.1706244 -5.400423 -1 0 0
-5.7299 0.05687559 4.912703 -1 0 0
-5.7299 0.05687549 4.053328 -1 0 0
-5.7299 5.344543E-07 4.483328 -1 0 0
-5.7299 0.1706254 3.193328 -1 0 0
-5.7299 0.1137505 3.623328 -1 0 0
-5.7299 0.1706255 4.052703 -1 0 0
-5.7299 3.295634E-07 2.764578 -1 0 0
-5.7299 0.05687539 3.193953 -1 0 0
-5.7299 0.05687529 2.334578 -1 0 0
-5.7299 0.3981252 1.473328 -1 0 0
-5.7299 0.3412503 1.903328 -1 0 0
-5.7299 0.3981253 2.332703 -1 0 0
-5.7299 0.2275002 1.044578 -1 0 0
-5.7299 0.2843752 1.473953 -1 0 0
-5.7299 0.2843751 0.6145779 -1 0 0
-5.7299 0.2843754 3.192703 -1 0 0
-5.7299 0.2843753 2.333328 -1 0 0
-5.7299 0.2275004 2.763328 -1 0 0
-5.7299 -8.021857E-08 -0.6729222 -1 0 0
-5.7299 0.05687498 -0.2435472 -1 0 0
-5.7299 0.05687488 -1.102922 -1 0 0
-5.7299 0.05687518 1.475203 -1 0 0
-5.7299 0.05687508 0.6158279 -1 0 0
-5.7299 1.246724E-07 1.045828 -1 0 0
-5.7299 0.170625 -0.2441722 -1 0 0
-5.7299 0.11375 0.1858279 -1 0 0
-5.7299 0.1706251 0.615203 -1 0 0
-5.7299 0.1706253 2.333953 -0.9999999 0 0
-5.7299 0.1706252 1.474578 -0.9999999 0 0
-5.7299 0.1137502 1.904578 -0.9999999 0 0
-5.7299 0.3981246 -3.682923 -1 0 0
-5.7299 0.2843747 -2.822923 -1 0 0
-5.7299 0.3412496 -3.252923 -1 0 0
-5.7299 0.3981247 -2.823548 -1 0 0
-5.7299 0.3981248 -1.964172 -1 0 0
-5.7299 0.1137498 -1.532923 -1 0 0
-5.7299 0.2274999 -0.6741723 -0.9999999 0 0
-5.7299 0.1706249 -1.103547 -0.9999999 0 0
-5.7299 0.1706248 -1.962922 -0.9999999 0 0
-5.7299 0.2274998 -2.392922 -1 0 0
-5.7299 0.3981251 0.6139529 -1 0 0
-5.7299 0.3981249 -1.104797 -1 0 0
-5.7299 0.398125 -0.2454222 -1 0 0
-5.7299 0.3412501 0.1845779 -1 0 0
-5.7299 0.284375 -0.2447972 -1 0 0
-5.7299 0.2843748 -1.963547 -1 0 0
-5.7299 0.2843749 -1.104172 -1 0 0
-5.7299 0.3412499 -1.534172 -1 0 0
-6.0299 2.872252 -4.161218 0 0 -1
-6.0299 2.92572 -4.737648 0 0 -1
-6.0299 2.92572 -4.372288 0 0 -1
-6.0299 2.92572 -5.468368 0 0 -1
-6.0299 2.92572 -5.103008 0 0 -0.9999999
-6.0299 2.872252 -4.891938 0 0 -0.9999999
-6.0299 3.032657 -5.525148 0 0 -0.9999999
-6.0299 2.979189 -5.314078 0 0 -0.9999999
-6.0299 3.032657 -5.890508 0 0.07845947 0.9969173
-6.0299 2.92572 -6.929808 0 0.07845947 0.9969173
-6.0299 2.92572 -6.564448 0 0.07845947 0.9969173
-6.0299 2.872252 -6.353378 0 0.07845947 0.9969173
-6.0299 3.032657 -6.986588 0 0.382686 0.9238784
-6.0299 2.979188 -6.775518 0 0.382686 0.9238784
-6.0299 3.032657 -7.351948 0 0.382686 0.9238784
-6.0299 2.872252 -5.622658 0 0.382686 0.9238784
-6.0299 2.92572 -6.199088 0 0.233443 0.9723704
-6.0299 2.92572 -5.833728 0 0.233443 0.9723704
-6.0299 3.246531 -7.830869 0 0.233443 0.9723704
-6.0299 3.193062 -7.619799 0 0.233443 0.9723704
-6.0299 3.246531 -8.196228 0 0.5224965 0.8526415
-6.0299 3.086125 -6.466938 0 0.5224965 0.8526415
-6.0299 3.139594 -7.043369 0 0.5224965 0.8526415
-6.0299 3.139594 -6.678008 0 0.5224965 0.8526415
-6.0299 3.139594 -7.774088 0 0.7604068 0.6494471
-6.0299 3.139594 -7.408729 0 0.7604068 0.6494471
-6.0299 3.086125 -7.197659 0 0.7604068 0.6494471
-6.0299 2.979188 -6.044798 0 0.7604068 0.6494471
-6.0299 3.032657 -6.621228 0 0.9969174 0.07845971
-6.0299 3.032657 -6.255868 0 0.9969174 0.07845971
-6.0299 2.86125 -1.194798 0 0.9969174 0.07845971
-6.0299 2.88875 -1.656048 0 0.9969174 0.07845971
-6.0299 2.8875 -1.488548 0 0.6494488 0.7604052
-6.0299 2.89125 -1.991048 0 0.6494488 0.7604052
-6.0299 2.89 -1.823548 0 0.6494488 0.7604052
-6.0299 2.86375 -1.529798 0 0.6494488 0.7604052
-6.0299 2.9425 -2.411048 0 0.8526396 0.5224994
-6.0299 2.91625 -2.117298 0 0.8526396 0.5224994
-6.0299 2.94375 -2.578548 0 0.8526396 0.5224994
-6.0299 2.89625 -2.661048 0 0.8526396 0.5224994
-6.0299 2.895 -2.493548 0 0.9238802 0.3826819
-6.0299 2.86875 -2.199798 0 0.9238802 0.3826819
-6.0299 2.9475 -3.081048 0 0.9238802 0.3826819
-6.0299 2.92125 -2.787297 0 0.9238802 0.3826819
-6.0299 2.94875 -3.248548 0 0.972369 0.2334487
-6.0299 2.866251 -1.864797 0 0.972369 0.2334487
-6.0299 2.89375 -2.326048 0 0.972369 0.2334487
-6.0299 2.8925 -2.158548 0 0.972369 0.2334487
-6.0299 3.0525 -4.256048 0 0.8526396 -0.5224994
-6.0299 3.02625 -3.962298 0 0.8526396 -0.5224994
-6.0299 3.05375 -4.423548 0 0.8526396 -0.5224994
-6.0299 2.97125 -3.039798 0 0.8526396 -0.5224994
-6.0299 2.99875 -3.501048 0 0.9723695 -0.2334473
-6.0299 2.9975 -3.333548 0 0.9723695 -0.2334473
-6.0299 3.00125 -3.836048 0 0.9723695 -0.2334473
-6.0299 3 -3.668548 0 0.9723695 -0.2334473
-6.0299 2.97375 -3.374798 0 0.9238802 -0.3826819
-6.0299 2.91875 -2.452298 0 0.9238802 -0.3826819
-6.0299 2.94625 -2.913548 0 0.9238802 -0.3826819
-6.0299 2.945 -2.746048 0 0.9238802 -0.3826819
-6.0299 2.90625 -4.001048 0 0.7604068 -0.6494471
-6.0299 2.905 -3.833548 0 0.7604068 -0.6494471
-6.0299 2.87875 -3.539798 0 0.7604068 -0.6494471
-6.0299 2.9575 -4.421048 0 0.7604068 -0.6494471
-6.0299 2.93125 -4.127298 0 0.233443 -0.9723704
-6.0299 2.95875 -4.588548 0 0.233443 -0.9723704
-6.0299 2.87625 -3.204798 0 0.233443 -0.9723704
-6.0299 2.90375 -3.666047 0 0.233443 -0.9723704
-6.0299 2.9025 -3.498547 0 0.5224965 -0.8526415
-6.0299 3.0625 -5.596048 0 0.5224965 -0.8526415
-6.0299 3.03625 -5.302298 0 0.5224965 -0.8526415
-6.0299 3.06375 -5.763548 0 0.5224965 -0.8526415
-6.0299 2.98125 -4.379798 0 0.382686 -0.9238784
-6.0299 3.00875 -4.841048 0 0.382686 -0.9238784
-6.0299 3.0075 -4.673548 0 0.382686 -0.9238784
-6.0299 3.01125 -5.176047 0 0.382686 -0.9238784
-6.0299 3.01 -5.008548 0 0.6494488 -0.7604052
-6.0299 2.98375 -4.714797 0 0.6494488 -0.7604052
-6.0299 2.87125 -2.534797 0 0.6494488 -0.7604052
-6.0299 2.89875 -2.996047 0 0.6494488 -0.7604052
-6.0299 2.8975 -2.828548 0 0.07845947 -0.9969173
-6.0299 2.90125 -3.331048 0 0.07845947 -0.9969173
-6.0299 2.9 -3.163548 0 0.07845947 -0.9969173
-6.0299 2.87375 -2.869797 0 0.07845947 -0.9969173
-6.0299 2.9525 -3.751048 0 0.9969174 -0.07845971
-6.0299 2.92625 -3.457298 0 0.9969174 -0.07845971
-6.0299 2.95375 -3.918548 0 0.9969174 -0.07845971
-6.0299 2.95625 -4.253548 0 0.9969174 -0.07845971
-6.0299 2.955 -4.086048 0 -0.1161788 -0.9932283
-6.0299 2.92875 -3.792298 0 -0.1161788 -0.9932283
-6.0299 3.2725 -7.946048 0 -0.1161788 -0.9932283
-6.0299 3.246249 -7.652298 -0.01324899 -0.3609624 -0.9324862
-6.0299 3.273749 -8.113548 -0.01324899 -0.3609624 -0.9324862
-6.0299 3.19125 -6.729798 -0.01324899 -0.3609624 -0.9324862
-6.0299 3.21875 -7.191048 -0.00880842 -0.2404988 -0.9706095
-6.0299 3.217499 -7.023549 -0.00880842 -0.2404988 -0.9706095
-6.0299 3.22125 -7.526048 -0.00880842 -0.2404988 -0.9706095
-6.0299 3.22 -7.358549 -0.01326447 -0.4756941 -0.8795108
-6.0299 3.19375 -7.064798 -0.01326447 -0.4756941 -0.8795108
-6.0299 3.08125 -4.884798 -0.01326447 -0.4756941 -0.8795108
-6.0299 3.10875 -5.346048 -2.807015E-05 -0.680735 -0.7325298
-6.0299 3.1075 -5.178548 -2.807015E-05 -0.680735 -0.7325298
-6.0299 3.11125 -5.681047 -2.807015E-05 -0.680735 -0.7325298
-6.0299 3.11 -5.513548 3.461375E-05 -0.7677032 -0.6408055
-6.0299 3.08375 -5.219798 3.461375E-05 -0.7677032 -0.6408055
-6.0299 3.1625 -6.101048 3.461375E-05 -0.7677032 -0.6408055
-6.0299 3.13625 -5.807298 0.01104265 -0.9970612 -0.07580896
-6.0299 3.16375 -6.268548 0.01104265 -0.9970612 -0.07580896
-6.0299 3.11625 -6.351048 0.01104265 -0.9970612 -0.07580896
-6.0299 3.115 -6.183548 -0.008855242 -0.5828572 -0.8125264
-6.0299 3.08875 -5.889798 -0.008855242 -0.5828572 -0.8125264
-6.0299 3.1675 -6.771048 -0.008855242 -0.5828572 -0.8125264
-6.0299 3.14125 -6.477298 -0.008820487 -0.84236 -0.5388432
-6.0299 3.16875 -6.938549 -0.008820487 -0.84236 -0.5388432
-6.0299 3.08625 -5.554798 -0.008820487 -0.84236 -0.5388432
-6.0299 3.11375 -6.016047 0.01106871 -0.6713294 -0.7410764
-6.0299 3.1125 -5.848548 0.01106871 -0.6713294 -0.7410764
-6.0299 3.164999 -6.436048 0.01106871 -0.6713294 -0.7410764
-6.0299 3.13875 -6.142298 0.0176827 -0.5515142 -0.8339781
-6.0299 3.16625 -6.603548 0.0176827 -0.5515142 -0.8339781
-6.0299 2.92375 -3.122298 0.0176827 -0.5515142 -0.8339781
-6.0299 2.97875 -4.044798 0.01766427 -0.2770207 -0.9607015
-6.0299 2.95125 -3.583548 0.01766427 -0.2770207 -0.9607015
-6.0299 2.95 -3.416048 0.01766427 -0.2770207 -0.9607015
-6.0299 2.97625 -3.709798 0.01989035 -0.4190657 -0.9077381
-6.0299 3.06125 -5.428548 0.01989035 -0.4190657 -0.9077381
-6.0299 3.05875 -5.093548 0.01989035 -0.4190657 -0.9077381
-6.0299 3.06 -5.261048 0.01099993 -0.128672 -0.9916261
-6.0299 3.03375 -4.967298 0.01099993 -0.128672 -0.9916261
-6.0299 3.00625 -4.506048 0.01099993 -0.128672 -0.9916261
-6.0299 3.055 -4.591048 -0.01325584 -0.9503449 -0.310916
-6.0299 3.0025 -4.003548 -0.01325584 -0.9503449 -0.310916
-6.0299 3.02875 -4.297298 -0.01325584 -0.9503449 -0.310916
-6.0299 3.05625 -4.758548 0.01767652 -0.9740456 -0.2256605
-6.0299 3.0575 -4.926048 0.01767652 -0.9740456 -0.2256605
-6.0299 3.005 -4.338548 0.01767652 -0.9740456 -0.2256605
-6.0299 3.03125 -4.632298 0.01988714 -0.9286944 -0.3703124
-6.0299 3.00375 -4.171048 0.01988714 -0.9286944 -0.3703124
-6.0299 3.286251 5.143641 0.01988714 -0.9286944 -0.3703124
-6.0299 3.286251 4.713953 0.01766823 -0.8620633 -0.5064924
-6.0299 3.300001 4.913015 0.01766823 -0.8620633 -0.5064924
-6.0299 3.258751 4.315828 0.01766823 -0.8620633 -0.5064924
-6.0299 3.272501 4.514891 -0.008835006 -0.9820174 -0.1885834
-6.0299 3.258751 4.745516 -0.008835006 -0.9820174 -0.1885834
-6.0299 3.300001 4.05364 -0.008835006 -0.9820174 -0.1885834
-6.0299 3.286251 4.284266 0.01102632 -0.7756544 -0.6310614
-6.0299 3.286251 3.854578 0.01102632 -0.7756544 -0.6310614
-6.0299 3.203751 3.519578 0.01102632 -0.7756544 -0.6310614
-6.0299 3.217501 3.71864 -0.01325612 -0.9035456 -0.4282868
-6.0299 3.203751 3.949265 -0.01325612 -0.9035456 -0.4282868
-6.0299 3.245001 3.25739 -0.01325612 -0.9035456 -0.4282868
-6.0299 3.231251 3.488015 8.864254E-07 -0.9980006 -0.06320523
-6.0299 3.231251 3.058328 8.864254E-07 -0.9980006 -0.06320523
-6.0299 3.231251 4.34739 8.864254E-07 -0.9980006 -0.06320523
-6.0299 3.231251 3.917703 -0.008822962 -0.8423598 0.5388431
-6.0299 3.245001 4.116765 -0.008822962 -0.8423598 0.5388431
-6.0299 3.300001 2.33489 -0.008822962 -0.8423598 0.5388431
-6.0299 3.286251 2.565516 -0.01325789 -0.9503449 0.310916
-6.0299 3.286251 2.135828 -0.01325789 -0.9503449 0.310916
-6.0299 3.286251 3.424891 -0.01325789 -0.9503449 0.310916
-6.0299 3.286251 2.995203 -0.01325563 -0.9035456 0.4282868
-6.0299 3.300001 3.194265 -0.01325563 -0.9035456 0.4282868
-6.0299 3.258751 2.597078 -0.01325563 -0.9035456 0.4282868
-6.0299 3.272501 2.79614 3.190139E-05 -0.7677032 0.6408056
-6.0299 3.258751 3.026765 3.190139E-05 -0.7677032 0.6408056
-6.0299 3.258751 3.886141 3.190139E-05 -0.7677032 0.6408056
-6.0299 3.258751 3.456453 -0.01324793 -0.3609624 0.9324862
-6.0299 3.272501 3.655516 -0.01324793 -0.3609624 0.9324862
-6.0299 3.093751 1.927078 -0.01324793 -0.3609624 0.9324862
-6.0299 3.107501 2.12614 -0.008811857 -0.2404988 0.9706095
-6.0299 3.093751 2.356765 -0.008811857 -0.2404988 0.9706095
-6.0299 3.135 1.66489 -0.008811857 -0.2404988 0.9706095
-6.0299 3.121251 1.895515 -0.008856408 -0.5828571 0.8125263
-6.0299 3.121251 1.465828 -0.008856408 -0.5828571 0.8125263
-6.0299 3.121251 2.75489 -0.008856408 -0.5828571 0.8125263
-6.0299 3.121251 2.325203 -0.01326681 -0.4756941 0.8795108
-6.0299 3.135001 2.524265 -0.01326681 -0.4756941 0.8795108
-6.0299 3.190001 0.7423901 -0.01326681 -0.4756941 0.8795108
-6.0299 3.17625 0.9730152 -3.393325E-05 -0.6807351 0.7325298
-6.0299 3.17625 0.5433276 -3.393325E-05 -0.6807351 0.7325298
-6.0299 3.176251 1.83239 -3.393325E-05 -0.6807351 0.7325298
-6.0299 3.17625 1.402703 0 -0.1161788 0.9932283
-6.0299 3.190001 1.601765 0 -0.1161788 0.9932283
-6.0299 3.14875 1.004578 0 -0.1161788 0.9932283
-6.0299 3.1625 1.20364 0.01104396 -0.9970609 0.07581228
-6.0299 3.14875 1.434265 0.01104396 -0.9970609 0.07581228
-6.0299 3.176251 3.55114 0.01104396 -0.9970609 0.07581228
-6.0299 3.176251 3.121453 -8.860807E-07 -0.9980007 0.06320473
-6.0299 3.190001 3.320515 -8.860807E-07 -0.9980007 0.06320473
-6.0299 3.148751 2.723328 -8.860807E-07 -0.9980007 0.06320473
-6.0299 3.162501 2.92239 -0.008835521 -0.9820174 0.1885834
-6.0299 3.148751 3.153015 -0.008835521 -0.9820174 0.1885834
-6.0299 3.190001 2.46114 -0.008835521 -0.9820174 0.1885834
-6.0299 3.176251 2.691765 0.0176764 -0.9740452 0.2256622
-6.0299 3.176251 2.262078 0.0176764 -0.9740452 0.2256622
-6.0299 3.148751 1.863953 0.0176764 -0.9740452 0.2256622
-6.0299 3.162501 2.063015 0.0198862 -0.9286923 0.3703176
-6.0299 3.148751 2.29364 0.0198862 -0.9286923 0.3703176
-6.0299 3.3 -1.10261 0.0198862 -0.9286923 0.3703176
-6.0299 3.28625 -0.8719851 0.01766666 -0.8620634 0.5064924
-6.0299 3.28625 -1.301673 0.01766666 -0.8620634 0.5064924
-6.0299 3.286251 -0.01261002 0.01766666 -0.8620634 0.5064924
-6.0299 3.28625 -0.4422976 0.01102166 -0.7756529 0.6310635
-6.0299 3.3 -0.2432351 0.01102166 -0.7756529 0.6310635
-6.0299 3.25875 -0.8404226 0.01102166 -0.7756529 0.6310635
-6.0299 3.2725 -0.64136 0.01106882 -0.6713241 0.7410813
-6.0299 3.25875 -0.4107351 0.01106882 -0.6713241 0.7410813
-6.0299 3.286251 1.70614 0.01106882 -0.6713241 0.7410813
-6.0299 3.286251 1.276453 0.01768195 -0.5515127 0.8339792
-6.0299 3.3 1.475515 0.01768195 -0.5515127 0.8339792
-6.0299 3.25875 0.8783275 0.01768195 -0.5515127 0.8339792
-6.0299 3.272501 1.07739 0.01988962 -0.4190601 0.9077407
-6.0299 3.25875 1.308015 0.01988962 -0.4190601 0.9077407
-6.0299 3.3 0.6161401 0.01988962 -0.4190601 0.9077407
-6.0299 3.286251 0.8467651 0.01766272 -0.2770225 0.9607011
-6.0299 3.286251 0.4170775 0.01766272 -0.2770225 0.9607011
-6.0299 3.203751 0.08207752 0.01766272 -0.2770225 0.9607011
-6.0299 3.2175 0.28114 0.01099563 -0.1286671 0.9916269
-6.0299 3.203751 0.5117651 0.01099563 -0.1286671 0.9916269
-6.0299 3.245 -0.18011 0.01099563 -0.1286671 0.9916269
-6.0299 3.23125 0.050515 -0.000152235 -0.1724292 -0.9850219
-6.0299 3.23125 -0.3791725 -0.000152235 -0.1724292 -0.9850219
-6.0299 3.23125 0.9098901 -0.000152235 -0.1724292 -0.9850219
-6.0299 3.23125 0.4802026 -0.0001156261 -0.4651554 -0.8852291
-6.0299 3.245 0.6792651 -0.0001156261 -0.4651554 -0.8852291
-6.0299 3.272501 0.218015 -0.0001156261 -0.4651554 -0.8852291
-6.0299 3.25875 0.44864 -0.0001200017 -0.3226458 -0.9465198
-6.0299 3.25875 0.01895249 -0.0001200017 -0.3226458 -0.9465198
-6.0299 3.203751 3.08989 -0.0001200017 -0.3226458 -0.9465198
-6.0299 3.203751 2.230515 -8.182303E-05 -0.5964673 -0.8026373
-6.0299 3.203751 2.660203 -8.182303E-05 -0.5964673 -0.8026373
-6.0299 3.217501 2.859265 -8.182303E-05 -0.5964673 -0.8026373
-6.0299 3.231251 2.62864 -5.762812E-05 -0.8132206 -0.5819555
-6.0299 3.203751 0.9414526 -5.762812E-05 -0.8132206 -0.5819555
-6.0299 3.23125 1.339578 -5.762812E-05 -0.8132206 -0.5819555
-6.0299 3.2175 1.140515 4.097222E-06 -0.9879675 -0.1546619
-6.0299 3.203751 1.37114 4.097222E-06 -0.9879675 -0.1546619
-6.0299 3.203751 1.800828 4.097222E-06 -0.9879675 -0.1546619
-6.0299 3.272501 1.936765 -3.050885E-05 -0.9521609 -0.305597
-6.0299 3.245001 2.398015 -3.050885E-05 -0.9521609 -0.305597
-6.0299 3.258751 2.16739 -3.050885E-05 -0.9521609 -0.305597
-6.0299 3.25875 1.737703 -6.650948E-05 -0.7134325 -0.700724
-6.0299 3.245 1.53864 -6.650948E-05 -0.7134325 -0.700724
-6.0299 3.217501 1.99989 -6.650948E-05 -0.7134325 -0.700724
-6.0299 3.231251 1.769265 -4.850976E-05 -0.8934414 -0.4491798
-6.0299 3.231251 2.198953 -4.850976E-05 -0.8934414 -0.4491798
-6.0299 2.87375 -1.257923 -4.850976E-05 -0.8934414 -0.4491798
-6.0299 2.8875 -1.05886 8.949402E-05 -0.5964319 -0.8026637
-6.0299 2.87375 -0.828235 8.949402E-05 -0.5964319 -0.8026637
-6.0299 2.915 -1.52011 8.949402E-05 -0.5964319 -0.8026637
-6.0299 2.90125 -1.289485 0.0001425685 -0.3225816 -0.9465416
-6.0299 2.90125 -1.719173 0.0001425685 -0.3225816 -0.9465416
-6.0299 2.90125 -0.4301099 0.0001425685 -0.3225816 -0.9465416
-6.0299 2.90125 -0.8597975 0.0001063555 -0.4651047 -0.8852557
-6.0299 2.915 -0.660735 0.0001063555 -0.4651047 -0.8852557
-6.0299 2.97 -2.44261 0.0001063555 -0.4651047 -0.8852557
-6.0299 2.95625 -2.211985 0 -0.1723904 -0.9850287
-6.0299 2.95625 -2.641673 0 -0.1723904 -0.9850287
-6.0299 2.95625 -1.35261 0 -0.1723904 -0.9850287
-6.0299 2.95625 -1.782298 5.75877E-05 -0.893429 -0.4492042
-6.0299 2.97 -1.583235 5.75877E-05 -0.893429 -0.4492042
-6.0299 2.92875 -2.180423 5.75877E-05 -0.893429 -0.4492042
-6.0299 2.9425 -1.98136 7.921024E-05 -0.8132001 -0.5819842
-6.0299 2.92875 -1.750735 7.921024E-05 -0.8132001 -0.5819842
-6.0299 2.956251 0.3661402 7.921024E-05 -0.8132001 -0.5819842
-6.0299 2.95625 -0.0635474 1.137269E-05 -0.9879672 -0.1546638
-6.0299 2.970001 0.1355151 1.137269E-05 -0.9879672 -0.1546638
-6.0299 2.92875 -0.4616725 1.137269E-05 -0.9879672 -0.1546638
-6.0299 2.9425 -0.2626099 9.442912E-05 -0.7134034 -0.7007536
-6.0299 2.92875 -0.03198489 9.442912E-05 -0.7134034 -0.7007536
-6.0299 2.97 -0.72386 9.442912E-05 -0.7134034 -0.7007536
-6.0299 2.95625 -0.493235 3.083808E-05 -0.9521561 -0.3056121
-6.0299 2.95625 -0.9229225 3.083808E-05 -0.9521561 -0.3056121
-6.0299 2.92875 -1.321048 3.083808E-05 -0.9521561 -0.3056121
-6.0299 2.9425 -1.121985 9.047942E-11 -1 -3.415417E-06
-6.0299 2.92875 -0.89136 9.047942E-11 -1 -3.415417E-06
-6.0299 3.08 -4.287611 9.047942E-11 -1 -3.415417E-06
-6.0299 3.06625 -4.056986 -7.282251E-05 -0.8934455 0.4491716
-6.0299 3.06625 -4.486673 -7.282251E-05 -0.8934455 0.4491716
-6.0299 3.06625 -3.19761 -7.282251E-05 -0.8934455 0.4491716
-6.0299 3.06625 -3.627298 -1.479805E-05 -0.9879683 0.1546565
-6.0299 3.08 -3.428235 -1.479805E-05 -0.9879683 0.1546565
-6.0299 3.03875 -4.025423 -1.479805E-05 -0.9879683 0.1546565
-6.0299 3.0525 -3.82636 -4.030764E-05 -0.9521623 0.3055928
-6.0299 3.03875 -3.595735 -4.030764E-05 -0.9521623 0.3055928
-6.0299 3.06625 -1.47886 -4.030764E-05 -0.9521623 0.3055928
-6.0299 3.06625 -1.908548 -7.788243E-05 -0.8132238 0.581951
-6.0299 3.08 -1.709485 -7.788243E-05 -0.8132238 0.581951
-6.0299 3.03875 -2.306673 -7.788243E-05 -0.8132238 0.581951
-6.0299 3.0525 -2.10761 -0.0001635924 -0.3226538 0.946517
-6.0299 3.03875 -1.876985 -0.0001635924 -0.3226538 0.946517
-6.0299 3.08 -2.56886 -0.0001635924 -0.3226538 0.946517
-6.0299 3.06625 -2.338235 -0.0001019136 -0.5964751 0.8026317
-6.0299 3.06625 -2.767923 -0.0001019136 -0.5964751 0.8026317
-6.0299 2.98375 -3.102923 -0.0001019136 -0.5964751 0.8026317
-6.0299 2.9975 -2.90386 -0.0001208126 -0.4651568 0.8852283
-6.0299 2.98375 -2.673235 -0.0001208126 -0.4651568 0.8852283
-6.0299 3.025 -3.36511 -0.0001208126 -0.4651568 0.8852283
-6.0299 3.01125 -3.134485 -9.18232E-05 -0.7134358 0.7007204
-6.0299 3.01125 -3.564173 -9.18232E-05 -0.7134358 0.7007204
-6.0299 3.01125 -2.27511 -9.18232E-05 -0.7134358 0.7007204
-6.0299 3.01125 -2.704798 -0.0001633079 -0.1724306 0.9850217
-6.0299 3.025 -2.505735 -0.0001633079 -0.1724306 0.9850217
-6.0299 3.0525 -2.966985 -0.0001633079 -0.1724306 0.9850217
-6.0299 3.03875 -2.73636 3.992987E-05 -0.9879661 0.1546704
-6.0299 3.03875 -3.166048 3.992987E-05 -0.9879661 0.1546704
-6.0299 3.066251 1.95864 3.992987E-05 -0.9879661 0.1546704
-6.0299 3.06625 1.528953 5.077043E-05 -0.9521551 0.3056152
-6.0299 3.08 1.728015 5.077043E-05 -0.9521551 0.3056152
-6.0299 3.038751 1.130828 5.077043E-05 -0.9521551 0.3056152
-6.0299 3.0525 1.32989 8.065924E-05 -0.8934277 0.4492069
-6.0299 3.038751 1.560515 8.065924E-05 -0.8934277 0.4492069
-6.0299 3.08 0.8686402 8.065924E-05 -0.8934277 0.4492069
-6.0299 3.06625 1.099265 0.0001020163 -0.8131968 0.5819888
-6.0299 3.06625 0.6695777 0.0001020163 -0.8131968 0.5819888
-6.0299 2.98375 0.3345776 0.0001020163 -0.8131968 0.5819888
-6.0299 2.9975 0.5336401 0.0001254446 -0.7133966 0.7007605
-6.0299 2.98375 0.7642652 0.0001254446 -0.7133966 0.7007605
-6.0299 3.025001 0.07239009 0.0001254446 -0.7133966 0.7007605
-6.0299 3.01125 0.3030151 0.0001357031 -0.5964259 0.8026682
-6.0299 3.01125 -0.1266724 0.0001357031 -0.5964259 0.8026682
-6.0299 3.01125 1.16239 0.0001357031 -0.5964259 0.8026682
-6.0299 3.01125 0.7327027 0.0001195884 -0.465102 0.8852571
-6.0299 3.025001 0.9317652 0.0001195884 -0.465102 0.8852571
-6.0299 3.08 -0.8501101 0.0001195884 -0.465102 0.8852571
-6.0299 3.06625 -0.619485 0.0001693083 -0.3225726 0.9465448
-6.0299 3.06625 -1.049173 0.0001693083 -0.3225726 0.9465448
-6.0299 3.06625 0.2398901 0.0001693083 -0.3225726 0.9465448
-6.0299 3.06625 -0.1897975 0 -0.172389 0.985029
-6.0299 3.08 0.009265057 0 -0.172389 0.985029
-6.0299 3.03875 -0.5879225 0 -0.172389 0.985029
-6.0299 3.0525 -0.38886 2.649056E-05 -1 3.415207E-06
-6.0299 3.03875 -0.158235 2.649056E-05 -1 3.415207E-06
-6.0299 3.038751 0.7011401 2.649056E-05 -1 3.415207E-06
-6.0299 3.038751 0.2714526 0 0 -1
-6.0299 3.0525 0.4705151 0 0 -1
-6.0299 2.98375 -2.243548 0 0 -1
-6.0299 3.01125 -1.845423 0 0 -1
-6.0299 2.9975 -2.044485 0 0 -1
-6.0299 2.98375 -1.81386 0 0 -1
-6.0299 2.98375 -1.384172 0 0 -0.9999999
-6.0299 3.0525 -1.248235 0 0 -1
-6.0299 3.025 -0.786985 0 0 1
-6.0299 3.03875 -1.01761 0 0 1
-6.0299 3.03875 -1.447297 0 0 1
-6.0299 3.025 -1.64636 0 0 1
-6.0299 2.98375 -0.09510992 0 0 0.9999999
-6.0299 2.98375 -0.9544851 0 0 0.9999999
-6.0299 2.98375 -0.5247975 0 0 0.9999999
-6.0299 2.9975 -0.3257349 0 0 0.9999999
-6.0299 3.01125 -0.5563599 0 -1 0
-6.0299 3.01125 -1.415735 0 -1 0
-6.0299 3.01125 -0.9860475 0 -1 0
-6.0299 2.9975 -1.18511 0 -1 0
-6.0299 3.299999 -7.977611 -1 0 0
-6.0299 3.28625 -7.746986 -1 0 0
-6.0299 3.28625 -8.176673 -1 0 0
-6.0299 3.28625 -6.887611 -1 0 0
-6.0299 3.28625 -7.317298 -0.1731537 0.9848948 0
-6.0299 3.299999 -7.118236 -0.1731537 0.9848948 0
-6.0299 3.258749 -7.715423 -0.1731537 0.9848948 0
-6.0299 3.2725 -7.516361 -0.1731537 0.9848948 0
-6.0299 3.258749 -7.285736 -1 0 0
-6.0299 3.28625 -5.16886 -1 0 0
-6.0299 3.28625 -5.598548 -1 0 0
-6.0299 3.3 -5.399486 -1 0 0
-6.0299 3.25875 -5.996673 -0.04855268 0.9988206 0
-6.0299 3.2725 -5.79761 -0.04855268 0.9988206 0
-6.0299 3.25875 -5.566985 -0.04855268 0.9988206 0
-6.0299 3.3 -6.258861 -0.04855268 0.9988206 0
-6.0299 3.28625 -6.028235 0 0 1
-6.0299 3.28625 -6.457923 0 0 1
-6.0299 3.20375 -6.792923 0 0 1
-6.0299 3.217499 -6.593861 0 0 1
-6.0299 3.20375 -6.363235 0 0 -1
-6.0299 3.244999 -7.055111 0 0 -1
-6.0299 3.231249 -6.824486 0 0 -1
-6.0299 3.231249 -7.254174 0 0 -1
-6.0299 3.23125 -5.965111 0 0 -0.9999999
-6.0299 3.231249 -6.394798 0 0 -0.9999999
-6.0299 3.245 -6.195735 0 0 -0.9999999
-6.0299 3.2725 -6.656985 0 0 -0.9999999
-6.0299 3.258749 -6.42636 0 0 0.9999999
-6.0299 3.258749 -6.856048 0 0 0.9999999
-6.0299 3.28625 -1.73136 0 0 0.9999999
-6.0299 3.28625 -2.161048 0 0 0.9999999
-6.0299 3.3 -1.961985 0 1 0
-6.0299 3.25875 -2.559173 0 1 0
-6.0299 3.2725 -2.36011 0 1 0
-6.0299 3.25875 -2.129485 0 1 0
-6.0299 3.3 -2.82136 0 1 0
-6.0299 3.28625 -2.590735 0 1 0
-6.0299 3.28625 -3.020423 0 1 0
-6.0299 3.20375 -3.355423 0 1 0
-6.0299 3.2175 -3.15636 1 0 0
-6.0299 3.20375 -2.925735 1 0 0
-6.0299 3.245 -3.61761 1 0 0
-6.0299 3.23125 -3.386985 -1 0 0
-6.0299 3.23125 -3.816673 -1 0 0
-6.0299 3.23125 -2.52761 -1 0 0
-6.0299 3.23125 -2.957298 0 -1 0
-6.0299 3.245 -2.758235 0 -1 0
-6.0299 3.3 -4.540111 0 -1 0
-6.0299 3.28625 -4.309485 0 -1 0
-6.0299 3.28625 -4.739173 0 -1 0
-6.0299 3.28625 -3.45011 0 -1 0
-6.0299 3.28625 -3.879798 0 -1 0
-6.0299 3.3 -3.680735 0 -1 0
-6.0299 3.25875 -4.277923 0 1 0
-6.0299 3.2725 -4.07886 0 1 0
-6.0299 3.25875 -3.848236 0 1 0
-6.0299 3.25875 -2.98886 0 0.9999999 0
-6.0299 3.25875 -3.418548 0 1 0
-6.0299 3.2725 -3.219485 0 1 0
-6.0299 3.09375 -4.947923 0 1 0
-6.0299 3.1075 -4.74886 0 1 0
-6.0299 3.09375 -4.518235 0 0 0.9999999
-6.0299 3.135 -5.210111 0 0 0.9999999
-6.0299 3.12125 -4.979486 0 0 0.9999999
-6.0299 3.12125 -5.409173 0 0 0.9999999
-6.0299 3.12125 -4.120111 -0.9999999 0 0
-6.0299 3.12125 -4.549798 -0.9999999 0 0
-6.0299 3.135 -4.350736 -0.9999999 0 0
-6.0299 3.19 -6.13261 -0.9999999 0 0
-6.0299 3.17625 -5.901985 0 0 1
-6.0299 3.17625 -6.331673 0 0 1
-6.0299 3.17625 -5.04261 0 0 1
-6.0299 3.17625 -5.472298 0 0 1
-6.0299 3.19 -5.273235 -1 0 0
-6.0299 3.14875 -5.870423 -1 0 0
-6.0299 3.1625 -5.67136 -1 0 0
-6.0299 3.14875 -5.440736 -1 0 0
-6.0299 3.17625 -3.32386 0 0 -1
-6.0299 3.17625 -3.753548 0 0 -1
-6.0299 3.19 -3.554485 0 0 -1
-6.0299 3.14875 -4.151673 0 0 -1
-6.0299 3.1625 -3.95261 -0.9999999 0 0
-6.0299 3.14875 -3.721985 -0.9999999 0 0
-6.0299 3.19 -4.41386 -0.9999999 0 0
-6.0299 3.17625 -4.183235 -0.9999999 0 0
-6.0299 3.17625 -4.612923 0 0 -0.9999999
-6.0299 3.14875 -5.011048 0 0 -0.9999999
-6.0299 3.1625 -4.811985 0 0 -0.9999999
-6.0299 3.14875 -4.581361 0 0 -0.9999999
-6.0299 3.2725 -4.938235 1 0 0
-6.0299 3.245 -4.476985 1 0 0
-6.0299 3.25875 -4.70761 1 0 0
-6.0299 3.25875 -5.137298 1 0 0
-6.0299 3.245 -5.33636 0 -0.7063581 -0.7078547
-6.0299 3.20375 -3.78511 0 -0.7063581 -0.7078547
-6.0299 3.20375 -4.644485 0 -0.7063581 -0.7078547
-6.0299 3.20375 -4.214798 0 -0.5901374 -0.8073028
-6.0299 3.2175 -4.015736 0 -0.5901374 -0.8073028
-6.0299 3.23125 -4.246361 0 -0.5901374 -0.8073028
-6.0299 3.20375 -5.933548 0 -0.8060518 -0.5918449
-6.0299 3.23125 -5.535423 0 -0.8060518 -0.5918449
-6.0299 3.2175 -5.734486 0 -0.8060518 -0.5918449
-6.0299 3.20375 -5.50386 0 -0.8060518 -0.5918449
-6.0299 3.20375 -5.074173 0 -0.7063581 -0.7078547
-6.0299 3.23125 -4.676048 0 -0.7063581 -0.7078547
-6.0299 3.2175 -4.875111 0 -0.7063581 -0.7078547
-6.0299 3.23125 -5.105736 0 -0.5901374 -0.8073028
-6.0299 3.09375 1.49739 0 -0.5901374 -0.8073028
-6.0299 3.09375 0.6380151 0 -0.5901374 -0.8073028
-6.0299 3.09375 1.067703 0 -0.3192901 -0.947657
-6.0299 3.107501 1.266765 0 -0.3192901 -0.947657
-6.0299 3.121251 1.03614 0 -0.3192901 -0.947657
-6.0299 3.09375 -1.080735 0 -0.3192901 -0.947657
-6.0299 3.09375 -0.6510475 0 -0.1710032 -0.9852704
-6.0299 3.12125 -0.2529225 0 -0.1710032 -0.9852704
-6.0299 3.1075 -0.451985 0 -0.1710032 -0.9852704
-6.0299 3.12125 -0.68261 0 -0.1710032 -0.9852704
-6.0299 3.09375 -0.22136 0 -0.4600987 -0.8878678
-6.0299 3.09375 0.2083276 0 -0.4600987 -0.8878678
-6.0299 3.1625 0.3442651 0 -0.4600987 -0.8878678
-6.0299 3.17625 0.11364 0 -0.4600987 -0.8878678
-6.0299 3.135 0.8055151 0 -0.9129561 0.4080579
-6.0299 3.14875 0.5748901 0 -0.9129561 0.4080579
-6.0299 3.14875 -0.284485 0 -0.9129561 0.4080579
-6.0299 3.14875 0.1452025 0 -0.9129561 0.4080579
-6.0299 3.135 -0.05385997 0 -0.9902077 0.1396025
-6.0299 3.107501 0.4073901 0 -0.9902077 0.1396025
-6.0299 3.121251 0.1767651 0 -0.9902077 0.1396025
-6.0299 3.121251 0.6064526 0 -0.9610059 0.2765279
-6.0299 3.09375 -4.088548 0 -0.9610059 0.2765279
-6.0299 3.12125 -3.690423 0 -0.9610059 0.2765279
-6.0299 3.1075 -3.889485 0 -0.9610059 0.2765279
-6.0299 3.09375 -3.65886 0 -0.9902077 0.1396025
-6.0299 3.09375 -3.229173 0 -0.9902077 0.1396025
-6.0299 3.17625 -2.894173 0 -0.9902077 0.1396025
-6.0299 3.1625 -3.093235 0 -1 -5.651761E-05
-6.0299 3.135 -2.631985 0 -1 -5.651761E-05
-6.0299 3.14875 -2.86261 0 -1 -5.651761E-05
-6.0299 3.14875 -2.432923 0 -0.9901938 -0.1397009
-6.0299 3.14875 -3.292298 0 -0.9901938 -0.1397009
-6.0299 3.135 -3.49136 0 -0.9901938 -0.1397009
-6.0299 3.09375 -1.94011 0 -0.9609846 -0.2766019
-6.0299 3.09375 -1.510423 0 -0.9609846 -0.2766019
-6.0299 3.09375 -2.799485 0 -0.9609846 -0.2766019
-6.0299 3.09375 -2.369798 0 -0.9129432 -0.4080866
-6.0299 3.12125 -1.971673 0 -0.9129432 -0.4080866
-6.0299 3.1075 -2.170735 0 -0.9129432 -0.4080866
-6.0299 3.12125 -2.40136 0 -0.9129432 -0.4080866
-6.0299 3.12125 -3.260735 0 -0.9901938 -0.1397009
-6.0299 3.12125 -2.831048 0 -0.9901938 -0.1397009
-6.0299 3.1075 -3.03011 0 -0.9901938 -0.1397009
-6.0299 3.2725 -1.500735 0 -0.9609846 -0.2766019
-6.0299 3.245 -1.039485 0 -0.9609846 -0.2766019
-6.0299 3.25875 -1.27011 0 -0.9609846 -0.2766019
-6.0299 3.25875 -1.699798 0 -1 -5.651761E-05
-6.0299 3.245 -1.89886 0 -1 -5.651761E-05
-6.0299 3.190001 -0.116985 0 -1 -5.651761E-05
-6.0299 3.20375 -0.34761 0 1 0
-6.0299 3.20375 -1.206985 0 1 0
-6.0299 3.20375 -0.7772976 0 1 0
-6.0299 3.19 -0.9763601 0 1 0
-6.0299 3.2175 -0.5782351 0 1 0
-6.0299 3.23125 -0.8088601 0 1 0
-6.0299 3.20375 -2.496048 0 1 0
-6.0299 3.19 -2.69511 0 1 0
