 VERSION .7
FIELDS x y z normal_x normal_y normal_z
SIZE 4 4 4 4 4 4
TYPE F F F F F F
COUNT 1 1 1 1 1 1
WIDTH 358
HEIGHT 1
VIEWPOINT 0 0 0 1 0 0 0
POINTS 358
DATA ascii
-0.2499999850988388    -1.1799999475479126    0.4999999701976776    -0.9428315162658691    -0.3171270787715912    0.10246444493532181
-0.25999999046325684    -1.2599999904632568    0.35999998450279236    -0.01354107167571783    0.9991804957389832    -0.03814387694001198
-0.23749998211860657    -1.2599999904632568    0.41999998688697815    -0.9843668937683105    -0.1454286277294159    0.09936033189296722
-0.11749999225139618    -1.2599999904632568    0.5399999618530273    0.9922730922698975    -0.08870213478803635    -0.0867529809474945
-0.2199999839067459    -1.2599999904632568    0.5974999666213989    0.2925198972225189    0.9550596475601196    0.04788917303085327
-0.6199999451637268    -1.0124999284744263    0.41999998688697815    0.03971504792571068    0.28652897477149963    -0.9572480916976929
-0.4999999701976776    -0.9924999475479126    0.5399999618530273    -0.18277013301849365    -0.16441108286380768    -0.9693111777305603
-0.5399999618530273    -1.059999942779541    0.3974999785423279    -0.07355590164661407    0.9924405217170715    -0.09824155271053314
-0.6199999451637268    -1.2599999904632568    0.35249999165534973    -0.13721175491809845    0.9901688694953918    -0.027176469564437866
-0.4599999785423279    -1.2599999904632568    0.39499998092651367    -0.020824268460273743    0.9995661377906799    -0.02082427218556404
-0.9399999380111694    -1.059999942779541    0.41499999165534973    0.11152734607458115    0.9828714728355408    -0.14671514928340912
-0.8199999332427979    -1.059999942779541    0.39499998092651367    0.1897689551115036    0.925552248954773    -0.327629029750824
-0.9399999380111694    -1.21999990940094    0.4074999690055847    0.10637382417917252    0.9928224682807922    0.054664239287376404
-0.6599999666213989    -1.2549998760223389    0.3399999737739563    0.21263191103935242    0.9720330834388733    -0.09969605505466461
-0.699999988079071    -1.2599999904632568    0.3699999749660492    0.21754823625087738    0.9760457277297974    0.002749320352450013
-0.9799999594688416    -1.0399999618530273    0.4599999785423279    0.07853919267654419    0.1890866905450821    -0.9788145422935486
-1.2599999904632568    -1.0424998998641968    0.4999999701976776    0.20802754163742065    0.5184853076934814    -0.8293958902359009
-1.1799999475479126    -1.0399999618530273    0.4999999701976776    0.014006966724991798    0.3663918375968933    -0.9303551912307739
-1.2499998807907104    -1.0199999809265137    0.5799999833106995    0.034909192472696304    -0.0414738766849041    -0.9985295534133911
-1.0549999475479126    -1.059999942779541    0.41999998688697815    0.10310840606689453    0.37542039155960083    -0.9211015701293945
-1.2549998760223389    -1.0999999046325684    0.4599999785423279    0.08670906722545624    0.8712102174758911    -0.4831918776035309
-1.0199999809265137    -1.1399999856948853    0.38749998807907104    0.09300412982702255    0.9858439564704895    -0.1395062953233719
-1.2599999904632568    -1.1399999856948853    0.45249998569488525    0.16773390769958496    0.9845477342605591    0.0503096729516983
-1.0999999046325684    -1.1399999856948853    0.429999977350235    0.2582365572452545    0.9626412987709045    -0.08145935833454132
-0.9799999594688416    -1.2599999904632568    0.41999998688697815    0.1575975865125656    0.9834091067314148    0.08983059227466583
-1.2599999904632568    -1.2599999904632568    0.4649999737739563    0.1578454226255417    0.9821497201919556    0.10230715572834015
1.2599999904632568    -1.0999999046325684    0.019999999552965164    -0.02230171114206314    -0.0038361388724297285    -0.9997438788414001
0.9399999380111694    -1.09499990940094    0.019999999552965164    -0.035751186311244965    -0.01203189231455326    -0.9992883205413818
0.3399999737739563    -1.0699999332427979    0.13999998569488525    -0.008795361965894699    -0.02953587844967842    -0.9995250701904297
0.019999999552965164    -1.059999942779541    0.03999999910593033    0.018241330981254578    -0.07621188461780548    -0.9969247579574585
-0.29999998211860657    -1.0799999237060547    0.019999999552965164    -0.0014399506617337465    -0.0559224970638752    -0.9984340667724609
-0.09999999403953552    -1.087499976158142    0.2199999839067459    0.08164513856172562    -0.2910183072090149    -0.9532274007797241
-0.09999999403953552    -1.15749990940094    0.25999999046325684    0.7630722522735596    -0.5247288942337036    -0.3773330748081207
-0.10749999433755875    -1.2599999904632568    0.25999999046325684    0.33892348408699036    -0.9408085942268372    0.0031527583487331867
-0.6199999451637268    -1.0549999475479126    0.019999999552965164    0.11205007135868073    -0.059170763939619064    -0.9919393062591553
-0.4599999785423279    -1.0799999237060547    0.09999999403953552    -0.04848755523562431    -0.15075214207172394    -0.9873818159103394
-0.6199999451637268    -1.0749999284744263    0.2199999839067459    -0.02543514408171177    -0.49764484167099    -0.8670079708099365
-0.37999996542930603    -1.0774999856948853    0.2199999839067459    0.04727661609649658    -0.32207241654396057    -0.9455338716506958
-0.4999999701976776    -1.122499942779541    0.2199999839067459    0.30592381954193115    -0.7360273599624634    -0.6038825511932373
-0.5799999833106995    -1.0999999046325684    0.33249998092651367    -0.00861363299190998    0.9647281169891357    -0.2631075978279114
-0.6199999451637268    -1.1924999952316284    0.05999999865889549    0.2925114631652832    -0.24098904430866241    0.9253978729248047
-0.5399999618530273    -1.1974999904632568    0.2199999839067459    -0.07110174745321274    -0.9755508899688721    0.20795443654060364
-0.6199999451637268    -1.182499885559082    0.25999999046325684    0.06767269968986511    -0.9288820028305054    0.364141047000885
-0.41999998688697815    -1.182499885559082    0.29999998211860657    1.6535565805497754e-08    -0.9438964128494263    -0.3302416205406189
-0.6199999451637268    -1.244999885559082    0.019999999552965164    0.2712292969226837    -0.12042863667011261    0.9549510478973389
-0.5399999618530273    -1.2499998807907104    0.05999999865889549    0.5345478653907776    -0.21421144902706146    0.8175402879714966
-0.5799999833106995    -1.2324999570846558    0.09999999403953552    0.6538662314414978    -0.1485346406698227    0.741887092590332
-0.5399999618530273    -1.2549998760223389    0.13999998569488525    0.46364885568618774    -0.39843061566352844    0.7913802862167358
-0.5699999928474426    -1.2599999904632568    0.019999999552965164    0.6643663644790649    0.11706964671611786    0.7381815314292908
-0.5649999976158142    -1.2599999904632568    0.09999999403953552    0.9482694864273071    -0.08013708889484406    -0.3071858882904053
-0.4999999701976776    -1.2599999904632568    0.20999999344348907    0.7916576266288757    -0.5842047929763794    0.1788378804922104
-0.4699999690055847    -1.2599999904632568    0.29999998211860657    0.34973379969596863    -0.9360610246658325    -0.03841984272003174
-0.8999999761581421    -1.0499999523162842    0.019999999552965164    -0.21051064133644104    0.03259977325797081    -0.977047860622406
-0.7399999499320984    -1.1174999475479126    0.019999999552965164    -0.06929785013198853    0.041808564215898514    -0.9967195987701416
-0.7399999499320984    -1.1024999618530273    0.17999999225139618    -0.04166601598262787    -0.1571320742368698    -0.9866982102394104
-0.7399999499320984    -1.1099998950958252    0.25999999046325684    -0.2363591343164444    -0.09069517254829407    -0.9674237966537476
-0.6524999737739563    -1.21999990940094    0.05999999865889549    -0.6335428953170776    -0.19498322904109955    0.7487355470657349
-1.0999999046325684    -1.059999942779541    0.032499998807907104    0.07949282228946686    -0.07949278503656387    -0.9936608076095581
-0.9799999594688416    -1.059999942779541    0.1524999886751175    -0.0895780697464943    -0.1695738285779953    -0.9814379811286926
-1.059999942779541    -1.0749999284744263    0.25999999046325684    -0.06688406318426132    -0.1452798992395401    -0.9871273040771484
0.019999999552965164    -1.0524998903274536    -0.019999999552965164    -0.03729189932346344    -0.018558159470558167    -0.9991320967674255
-0.4024999737739563    -0.9799999594688416    -0.29999998211860657    0.221697598695755    -0.6081469058990479    -0.7622385025024414
-0.5799999833106995    -1.09499990940094    -0.29999998211860657    -0.05726927891373634    0.09890637546777725    -0.993447482585907
-0.3399999737739563    -1.059999942779541    -0.29999998211860657    0.45615148544311523    0.3177955448627472    -0.8312230706214905
-0.41249996423721313    -1.059999942779541    -0.2199999839067459    0.20744948089122772    0.14682640135288239    -0.9671642184257507
-0.3399999737739563    -1.0625    -0.17999999225139618    -0.010442251339554787    -0.15226806700229645    -0.9882841110229492
-0.6199999451637268    -1.2024999856948853    -0.05999999865889549    0.3889102041721344    0.10666394978761673    0.9150801301002502
-0.5799999833106995    -1.247499942779541    -0.13999998569488525    0.4218561351299286    -0.09778176248073578    0.9013745188713074
-0.5674999952316284    -1.2599999904632568    -0.05999999865889549    0.8173319101333618    -0.02590128220617771    0.5755845308303833
-0.6574999690055847    -1.059999942779541    -0.13999998569488525    -0.06223712116479874    0.04177200421690941    -0.9971868991851807
-0.8199999332427979    -1.1074999570846558    -0.2199999839067459    -0.16981399059295654    0.0025949236005544662    -0.9854726791381836
-0.7399999499320984    -1.0999999046325684    0.007499999832361937    0.37662526965141296    -0.1537552922964096    -0.9135167002677917
-0.7799999713897705    -1.1074999570846558    -0.05999999865889549    -0.14215561747550964    0.09740044176578522    -0.9850406050682068
-0.7799999713897705    -1.1449999809265137    -0.2199999839067459    0.4181574881076813    -0.10453926026821136    -0.9023391604423523
-0.7399999499320984    -1.1974999904632568    -0.13999998569488525    0.18064582347869873    0.05558386072516441    0.981976330280304
-0.699999988079071    -1.1799999475479126    -0.017499998211860657    0.1774178147315979    -0.05459051951766014    0.9826204180717468
-0.6299999952316284    -1.21999990940094    -0.09999999403953552    0.2936912477016449    -0.06298191100358963    0.9538231492042542
-0.699999988079071    -1.2324999570846558    -0.09999999403953552    -0.19630460441112518    -0.0321316160261631    0.9800163507461548
-0.7399999499320984    -1.21999990940094    -0.004999999888241291    -0.22417248785495758    0.21520471572875977    0.9504912495613098
-0.6599999666213989    -1.2374999523162842    -0.05999999865889549    0.3652682900428772    0.1792573481798172    0.9134800434112549
-0.6599999666213989    -1.2299998998641968    -0.019999999552965164    -0.299107164144516    0.04467945173382759    0.9531729817390442
-1.0999999046325684    -1.0499999523162842    -0.019999999552965164    0.015200912952423096    0.0016889887629076838    -0.9998829960823059
0.019999999552965164    -1.0274999141693115    -0.6199999451637268    -0.11500668525695801    0.03343227133154869    -0.9928020238876343
-0.25999999046325684    -0.997499942779541    -0.3399999737739563    -0.000893359596375376    -0.0049690320156514645    -0.9999872446060181
-0.019999999552965164    -1.0274999141693115    -0.4999999701976776    0.05888822302222252    0.005035050213336945    -0.9982518553733826
-0.6199999451637268    -1.084999918937683    -0.5399999618530273    0.11147626489400864    0.019160011783242226    -0.9935823678970337
-0.5399999618530273    -1.09499990940094    -0.37999996542930603    0.13323985040187836    0.036363426595926285    -0.9904164671897888
-0.60999995470047    -1.2599999904632568    -0.4599999785423279    0.41113871335983276    0.027085110545158386    0.9111703038215637
-0.8999999761581421    -1.0824999809265137    -0.6199999451637268    -0.053642742335796356    -0.03423871099948883    -0.9979730248451233
-0.6599999666213989    -1.0899999141693115    -0.5799999833106995    0.12133599072694778    0.4248090088367462    -0.8971146941184998
-0.7574999332427979    -1.059999942779541    -0.41999998688697815    0.11692286282777786    0.10315552353858948    -0.9877691864967346
-0.747499942779541    -1.059999942779541    -0.3399999737739563    0.4078572988510132    -0.11013147234916687    -0.9063793420791626
-0.7799999713897705    -1.0999999046325684    -0.6049999594688416    0.18149204552173615    0.44155630469322205    -0.8786857724189758
-0.8199999332427979    -1.122499942779541    -0.6199999451637268    -0.4687308073043823    -0.2823486328125    -0.8370010256767273
-0.9399999380111694    -1.1124999523162842    -0.5399999618530273    0.4253346920013428    -0.11275160312652588    0.8979851603507996
-0.85999995470047    -1.1249998807907104    -0.4999999701976776    -0.1623644381761551    0.07528192549943924    -0.9838548898696899
-0.8199999332427979    -1.1399999856948853    -0.6199999451637268    -0.3235650360584259    -0.16178268194198608    0.9322724938392639
-0.9399999380111694    -1.1649999618530273    -0.5799999833106995    -0.06838679313659668    -0.8829345107078552    0.4644888639450073
-0.85999995470047    -1.1399999856948853    -0.5799999833106995    0.1124367043375969    -0.494253933429718    0.8620156049728394
-0.8199999332427979    -1.1749999523162842    -0.5799999833106995    0.4519311189651489    0.1343579739332199    -0.881876528263092
-0.85999995470047    -1.1524999141693115    -0.5399999618530273    0.47401759028434753    0.2669752538204193    0.8390657901763916
-0.9399999380111694    -1.1699999570846558    -0.4599999785423279    0.3184736669063568    0.6143888235092163    0.7218732237815857
-0.8424999713897705    -1.1799999475479126    -0.6199999451637268    -0.8035232424736023    0.27621105313301086    -0.5273120999336243
-0.8249999284744263    -1.1799999475479126    -0.5799999833106995    0.37789636850357056    -0.9062742590904236    -0.18937090039253235
-0.7799999713897705    -1.1799999475479126    -0.5799999833106995    -0.017624128609895706    0.04773242399096489    0.998704731464386
-0.8499999642372131    -1.1799999475479126    -0.5399999618530273    0.3410611152648926    -0.0301296915858984    0.9395580887794495
-0.7674999833106995    -1.21999990940094    -0.6199999451637268    -0.6264711618423462    -0.7763189077377319    -0.06973310559988022
-0.699999988079071    -1.21999990940094    -0.5999999642372131    0.3340343236923218    0.9190465807914734    0.20922350883483887
-0.9399999380111694    -1.2424999475479126    -0.5799999833106995    -0.14963625371456146    -0.9787023663520813    0.14053647220134735
-0.699999988079071    -1.2424999475479126    -0.5399999618530273    0.3277876675128937    -0.0033447653986513615    0.9447454810142517
-0.7799999713897705    -1.2599999904632568    -0.5999999642372131    -0.4164411425590515    -0.8585432171821594    -0.2991328239440918
-1.1799999475479126    -1.0549999475479126    -0.41999998688697815    0.06634238362312317    0.12999944388866425    -0.9892920851707458
-1.059999942779541    -1.0499999523162842    -0.37999996542930603    -0.14157971739768982    0.04033451899886131    -0.9891047477722168
-1.0999999046325684    -1.0824999809265137    -0.6199999451637268    -0.045704059302806854    -0.2443014532327652    -0.9686216711997986
-0.9799999594688416    -1.059999942779541    -0.5049999952316284    -0.21241149306297302    0.0902501791715622    -0.9730037450790405
-1.2599999904632568    -1.0999999046325684    -0.5699999928474426    0.05622382462024689    -0.11095420271158218    -0.99223393201828
-1.0774999856948853    -1.0999999046325684    -0.5399999618530273    0.21293115615844727    0.11505778878927231    -0.9702690243721008
-1.0199999809265137    -1.1049998998641968    -0.5399999618530273    -0.17852020263671875    -0.7043066024780273    0.6870827078819275
-0.9799999594688416    -1.1399999856948853    -0.6124999523162842    0.03513283282518387    -0.9264606833457947    0.3747483193874359
-1.1399999856948853    -1.1399999856948853    -0.559999942779541    -0.0555352084338665    -0.9712913036346436    -0.23131988942623138
-1.2424999475479126    -1.1399999856948853    -0.5399999618530273    -0.3559623062610626    -0.7297220230102539    -0.5837779641151428
-1.1399999856948853    -1.2024999856948853    -0.5399999618530273    -0.2510802149772644    -0.8659107685089111    -0.43261662125587463
-1.2599999904632568    -1.1874998807907104    -0.4999999701976776    -0.326549768447876    -0.7788200378417969    -0.5355414152145386
-0.9799999594688416    -1.21999990940094    -0.5849999785423279    -0.09147120267152786    -0.9953810572624207    0.02914576232433319
-1.0199999809265137    -1.2599999904632568    -0.559999942779541    -0.26840776205062866    -0.9129360318183899    -0.307417094707489
1.2599999904632568    -1.087499976158142    -0.9399999380111694    -0.024597985669970512    -0.0025254886131733656    -0.999694287776947
0.2199999839067459    -1.0649999380111694    -0.7399999499320984    -0.04015349969267845    0.018127571791410446    -0.9990290403366089
-0.13999998569488525    -1.0399999618530273    -0.7799999713897705    0.09192317724227905    0.042839549481868744    -0.9948441386222839
-0.3399999737739563    -1.0824999809265137    -0.9399999380111694    0.06286602467298508    0.02711757831275463    -0.9976534843444824
-0.5799999833106995    -1.0999999046325684    -0.7099999785423279    0.07126493006944656    0.0005340703064575791    -0.9974572658538818
-0.6049999594688416    -1.1399999856948853    -0.699999988079071    0.43147820234298706    -0.6288005113601685    -0.6468665599822998
-0.6074999570846558    -1.21999990940094    -0.699999988079071    0.8441011905670166    0.15352973341941833    0.5137332081794739
-0.60999995470047    -1.2599999904632568    -0.699999988079071    0.31117865443229675    -0.9282605648040771    -0.20371577143669128
-0.7399999499320984    -0.98499995470047    -0.699999988079071    -0.45675504207611084    -0.8399750590324402    0.2929450273513794
-0.7799999713897705    -1.0649999380111694    -0.8999999761581421    -0.08539264649152756    -0.02693108096718788    -0.995983362197876
-0.7799999713897705    -1.0899999141693115    -0.699999988079071    -0.3660624921321869    -0.248689666390419    -0.8967450857162476
-0.7399999499320984    -1.1024999618530273    -0.7399999499320984    -0.05795874074101448    -0.4715742766857147    -0.8799196481704712
-0.7874999642372131    -1.1399999856948853    -0.699999988079071    -0.3138805329799652    -0.7461662888526917    -0.5871244072914124
-0.7549999356269836    -1.1399999856948853    -0.6599999666213989    -0.8457289338111877    0.3951275944709778    -0.35863184928894043
-0.9399999380111694    -1.1399999856948853    -0.622499942779541    0.0    -0.18428826332092285    -0.9828723073005676
-0.7399999499320984    -1.1799999475479126    -0.6874999403953552    -0.37609168887138367    -0.9081755876541138    -0.18377196788787842
-0.762499988079071    -1.2599999904632568    -0.6599999666213989    -0.5676246881484985    -0.8141684532165527    -0.12219641357660294
-0.9799999594688416    -1.0674999952316284    -0.699999988079071    0.03938215225934982    -0.07280868291854858    -0.9965680837631226
1.2599999904632568    -1.0824999809265137    -1.2599999904632568    -0.006047579925507307    -0.015622789040207863    -0.999859631061554
0.019999999552965164    -1.0749999284744263    -1.2599999904632568    -0.010031276382505894    0.008125313557684422    -0.9999166131019592
0.019999999552965164    -1.0774999856948853    -1.1799999475479126    -0.06219568848609924    0.07642371952533722    -0.9951336979866028
-0.019999999552965164    -1.0749999284744263    -1.2599999904632568    0.10961778461933136    0.014615281485021114    -0.9938663244247437
-0.019999999552965164    -1.0774999856948853    -1.21999990940094    0.06646952778100967    0.08798143267631531    -0.9939019680023193
-0.25999999046325684    -1.0799999237060547    -1.1799999475479126    0.030515551567077637    0.21006116271018982    -0.9772118926048279
-0.25999999046325684    -1.0999999046325684    -1.2324999570846558    -0.38032400608062744    0.0665380135178566    -0.9224565625190735
-0.17999999225139618    -1.0999999046325684    -1.2499998807907104    0.19808527827262878    -0.07192255556583405    -0.9775424599647522
-0.25999999046325684    -1.1174999475479126    -1.2599999904632568    -0.04453044384717941    0.4956468939781189    -0.8673819303512573
-0.19749999046325684    -1.1399999856948853    -1.2599999904632568    -0.8747659921646118    0.2394084632396698    0.42126959562301636
-0.23999999463558197    -1.1799999475479126    -1.2599999904632568    -0.40679195523262024    0.9060333371162415    0.11672145873308182
-0.11499999463558197    -1.1799999475479126    -1.2599999904632568    0.48707717657089233    -0.8523820638656616    0.19026485085487366
-0.09999999403953552    -1.1799999475479126    -1.2424999475479126    0.6239043474197388    0.7065902948379517    0.3338764011859894
-0.2199999839067459    -1.21999990940094    -1.247499942779541    -0.799206554889679    0.580619752407074    0.15540143847465515
-0.18999998271465302    -1.21999990940094    -1.1799999475479126    -0.5401977300643921    0.8408733606338501    -0.03344328701496124
-0.23999999463558197    -1.2599999904632568    -1.2599999904632568    -0.6585053205490112    0.7525761127471924    0.0
-0.1249999925494194    -1.2599999904632568    -1.2599999904632568    0.6228010654449463    -0.7784973978996277    -0.07785006612539291
-0.2199999839067459    -1.2599999904632568    -1.2424999475479126    -0.7464838027954102    0.6635400652885437    0.04976537451148033
-0.09999999403953552    -1.2599999904632568    -1.2399998903274536    0.934479832649231    0.35599181056022644    -0.004171498119831085
-0.17999999225139618    -1.2599999904632568    -1.1724998950958252    0.15643173456192017    0.9832897186279297    0.09311523288488388
-0.4999999701976776    -1.0699999332427979    -1.2599999904632568    0.001888748025521636    0.0155419846996665    -0.9998774528503418
-0.6199999451637268    -1.0649999380111694    -1.21999990940094    -0.032463110983371735    -0.20580342411994934    -0.9780547618865967
-0.5399999618530273    -1.0724999904632568    -1.1799999475479126    0.03307177126407623    -0.04331129044294357    -0.9985140562057495
-0.4999999701976776    -1.0999999046325684    -1.2249999046325684    -0.007806859444826841    -0.03513388708233833    -0.9993520975112915
-0.9399999380111694    -1.057499885559082    -1.2599999904632568    -0.01353851705789566    0.00346528273075819    -0.9999023675918579
-0.8199999332427979    -1.059999942779541    -1.1799999475479126    -0.08015187829732895    -0.05466529354453087    -0.9952825307846069
-0.699999988079071    -1.0999999046325684    -1.2074999809265137    -0.0792921856045723    -0.04635132849216461    -0.9957732558250427
-1.1399999856948853    -1.059999942779541    -1.2524999380111694    0.03833100199699402    -0.03133488819003105    -0.9987736344337463
-1.2599999904632568    -1.0625    -1.2599999904632568    0.023950796574354172    -0.05039066821336746    -0.9984423518180847
0.019999999552965164    -0.9324999451637268    0.019999999552965164    0.3713904917240143    0.5570857524871826    -0.7427816987037659
0.019999999552965164    -0.9474999308586121    0.019999999552965164    0.3713904917240143    0.5570857524871826    0.7427816987037659
0.004999999888241291    -0.9399999380111694    0.019999999552965164    0.5547001957893372    0.8320503234863281    0.0
0.9399999380111694    -0.9599999785423279    -0.29999998211860657    -0.006481304299086332    0.003240652149543166    0.999973714351654
0.019999999552965164    -0.9399999380111694    0.009999999776482582    0.5547001957893372    0.8320503234863281    0.0
-0.37999996542930603    -0.9399999380111694    -0.2799999713897705    -0.5093008279800415    -0.840216875076294    -0.1861402690410614
-0.29999998211860657    -0.6599999666213989    -0.6049999594688416    0.1518770158290863    -0.9882552623748779    0.016875211149454117
-0.29999998211860657    -0.7049999833106995    -0.5399999618530273    0.40416419506073    0.24871639907360077    -0.8802223801612854
-0.2199999839067459    -0.9399999380111694    -0.6049999594688416    -0.030264312401413918    -0.2368435114622116    0.9710763096809387
-0.3399999737739563    -0.6599999666213989    -0.5399999618530273    -0.9010043740272522    0.30904775857925415    -0.30443498492240906
-0.5399999618530273    -0.7799999713897705    -0.5399999618530273    0.9829599261283875    -0.05670926719903946    -0.17485348880290985
-0.512499988079071    -0.8199999332427979    -0.4999999701976776    0.4660589098930359    -0.8488069772720337    0.2496313601732254
-0.37999996542930603    -0.9399999380111694    -0.32249999046325684    0.1653481423854828    0.9860770106315613    -0.017662249505519867
-0.6674999594688416    -0.9399999380111694    -0.5799999833106995    0.49894478917121887    -0.6869774460792542    0.5283144116401672
1.059999942779541    -0.9249999523162842    -0.7799999713897705    -0.263388991355896    -0.052677758038043976    0.9632503986358643
1.0999999046325684    -0.9599999785423279    -0.9399999380111694    -0.05116129666566849    -0.06561991572380066    0.9965322613716125
1.059999942779541    -0.9599999785423279    -0.7399999499320984    -0.03176599368453026    0.04764899984002113    0.9983589053153992
0.699999988079071    -0.9199999570846558    -0.9399999380111694    0.020828289911150932    0.006942741572856903    0.9997589588165283
0.85999995470047    -0.9199999570846558    -0.9399999380111694    1.2126593063044311e-08    0.0    1.0
0.8999999761581421    -0.9199999570846558    -0.7799999713897705    -1.3229014328430821e-08    1.3229014328430821e-08    1.0
0.6599999666213989    -0.9599999785423279    -0.9399999380111694    -0.029754802584648132    -0.07438702136278152    0.9967854022979736
0.7799999713897705    -0.9624999761581421    -0.9399999380111694    0.0    0.10748189687728882    0.9942070245742798
0.8999999761581421    -0.9624999761581421    -0.9399999380111694    0.14063261449337006    0.10547445714473724    0.9844276309013367
0.6599999666213989    -0.9599999785423279    -0.85999995470047    0.029314624145627022    0.037457577884197235    0.9988681674003601
0.8199999332427979    -0.9599999785423279    -0.85999995470047    -0.0320327989757061    -0.011211476288735867    0.9994238615036011
0.9399999380111694    -0.9599999785423279    -0.8199999332427979    -0.03264428302645683    -0.06825622171163559    0.9971335530281067
0.8199999332427979    -0.9599999785423279    -0.7799999713897705    -0.13469558954238892    0.07857248932123184    0.9877669215202332
0.8999999761581421    -0.9599999785423279    -0.7399999499320984    0.008471531793475151    0.02541462332010269    0.9996410608291626
0.5399999618530273    -0.9199999570846558    -0.85999995470047    -0.05832124873995781    0.11664244532585144    0.9914601445198059
0.6199999451637268    -0.9199999570846558    -0.85999995470047    0.07591564208269119    -0.1423417627811432    0.9869019985198975
0.5799999833106995    -0.9199999570846558    -0.7799999713897705    0.01863063871860504    -0.4471362233161926    0.8942717909812927
0.4999999701976776    -0.9599999785423279    -0.8999999761581421    -0.043773505836725235    -0.11672932654619217    0.9921987056732178
0.5799999833106995    -0.9599999785423279    -0.85999995470047    0.012498763389885426    0.00624938914552331    0.9999023675918579
0.3399999737739563    -0.9599999785423279    -0.8199999332427979    0.044686637818813324    -0.04468664899468422    0.9980011582374573
0.4999999701976776    -0.9599999785423279    -0.7799999713897705    0.0    -1.2126599280293249e-08    1.0
0.6199999451637268    -0.9624999761581421    -0.7799999713897705    0.03670124709606171    0.045876532793045044    0.9982727766036987
0.2199999839067459    -0.9249999523162842    -0.9399999380111694    -0.09316080808639526    -0.06210721284151077    0.9937121272087097
0.29999998211860657    -0.9199999570846558    -0.7399999499320984    0.02232104353606701    -0.18693742156028748    0.9821182489395142
0.019999999552965164    -0.92249995470047    -0.6599999666213989    -0.03171951696276665    -0.11121787130832672    0.9932897686958313
0.17999999225139618    -0.9599999785423279    -0.9399999380111694    -0.13608655333518982    0.04398748651146889    0.9897199273109436
0.17999999225139618    -0.9449999332427979    -0.699999988079071    0.003979463130235672    -0.07030387967824936    0.9975176453590393
-0.09999999403953552    -0.9599999785423279    -0.85999995470047    -0.030094431713223457    -0.05624737590551376    0.9979632496833801
-0.5799999833106995    -0.6599999666213989    -0.7449999451637268    0.4372871518135071    -0.8674278855323792    0.23737892508506775
-0.5074999928474426    -0.7399999499320984    -0.6599999666213989    0.9094499945640564    -0.32304540276527405    -0.26180586218833923
-0.3399999737739563    -0.92249995470047    -0.9399999380111694    0.038767896592617035    0.11630360037088394    0.9924567341804504
-0.41999998688697815    -0.9274999499320984    -0.85999995470047    -3.4647422708644626e-09    0.0    1.0
-0.37999996542930603    -0.9599999785423279    -0.9399999380111694    -0.11163923144340515    -0.282819539308548    0.9526541233062744
-0.6199999451637268    -0.9599999785423279    -0.85999995470047    -0.05361548438668251    -0.04613460600376129    0.9974954128265381
-0.3399999737739563    -0.9599999785423279    -0.85999995470047    0.0008437187061645091    0.04556068778038025    0.9989611506462097
-0.41999998688697815    -0.9599999785423279    -0.8199999332427979    -0.008046882227063179    -0.0007154970080591738    0.9999673962593079
-0.9399999380111694    -0.9599999785423279    -0.7399999499320984    -0.015517644584178925    -0.11618627607822418    0.9931062459945679
-0.7799999713897705    -0.9574999213218689    -0.7399999499320984    0.03971925750374794    -0.023087292909622192    0.9989441633224487
-0.699999988079071    -0.9549999237060547    -0.7399999499320984    0.2649106979370117    -0.3281663656234741    0.9067134261131287
-0.8374999761581421    -0.9399999380111694    -0.6599999666213989    -0.2603316307067871    -0.8649552464485168    0.429045170545578
0.85999995470047    -0.9199999570846558    -1.059999942779541    -0.49613890051841736    0.0    0.8682431578636169
0.8999999761581421    -0.9199999570846558    -1.059999942779541    0.6154575347900391    -0.4923662841320038    0.6154571771621704
0.8199999332427979    -0.9199999570846558    -1.0199999809265137    0.0056802574545145035    0.02272104285657406    0.9997257590293884
0.8999999761581421    -0.9199999570846558    -1.0199999809265137    -0.12215515226125717    0.5038905739784241    0.8550862073898315
0.8199999332427979    -0.9599999785423279    -1.1799999475479126    0.016093488782644272    -0.06437400728464127    0.9977961778640747
0.8199999332427979    -0.9599999785423279    -1.059999942779541    -0.314485639333725    -0.10482846945524216    0.94345623254776
0.85999995470047    -0.9599999785423279    -1.0199999809265137    0.0    0.010416083037853241    0.9999457597732544
0.9399999380111694    -0.9599999785423279    -1.0199999809265137    0.2747556269168854    -0.06744008511304855    0.9591460824012756
0.699999988079071    -0.9599999785423279    -0.9799999594688416    -0.12770842015743256    -0.1693524271249771    0.9772462844848633
0.3399999737739563    -0.9199999570846558    -1.0199999809265137    8.084398928076553e-09    0.0    1.0
0.5399999618530273    -0.9599999785423279    -1.0999999046325684    0.0    0.0    0.9999999403953552
0.3399999737739563    -0.9599999785423279    -1.059999942779541    0.10482853651046753    -0.3144858479499817    0.9434561729431152
0.37999996542930603    -0.9599999785423279    -1.0199999809265137    0.1240348219871521    0.0    0.9922778010368347
0.17999999225139618    -0.92249995470047    -1.0199999809265137    0.07056259363889694    0.4233759343624115    0.9032019972801208
0.25999999046325684    -0.9599999785423279    -1.059999942779541    0.016424382105469704    -0.0503678172826767    0.998595654964447
0.019999999552965164    -0.9599999785423279    -1.0199999809265137    -0.006245915312319994    -0.03591366484761238    0.9993354678153992
-0.25999999046325684    -0.9599999785423279    -0.9799999594688416    0.07964606583118439    -0.10619474947452545    0.9911504983901978
-0.2824999988079071    -0.5399999618530273    -0.5399999618530273    0.9009373784065247    -0.036037568002939224    0.43245023488998413
-0.2774999737739563    -0.6199999451637268    -0.4999999701976776    0.9153725504875183    0.34787115454673767    -0.20267893373966217
-0.5624999403953552    -0.41999998688697815    -0.4999999701976776    0.9539794921875    -0.018705589696764946    -0.2992878258228302
-0.5399999618530273    -0.4599999785423279    -0.5499999523162842    0.0    0.0    0.0
-0.5399999618530273    -0.4599999785423279    -0.48749998211860657    0.34896188974380493    -0.9199902415275574    0.17844681441783905
-0.4674999713897705    -0.4599999785423279    -0.4599999785423279    0.5445050597190857    -0.7091225385665894    -0.44795021414756775
-0.4649999737739563    -0.4599999785423279    -0.37999996542930603    0.6173380017280579    -0.10610494017601013    0.7795097827911377
-0.5499999523162842    -0.4999999701976776    -0.41999998688697815    0.8368735313415527    -0.5276838541030884    0.14557652175426483
-0.48499998450279236    -0.4999999701976776    -0.41999998688697815    0.8221472501754761    -0.4400445520877838    0.3611574172973633
-0.41999998688697815    -0.4999999701976776    -0.38999998569488525    0.954055666923523    -0.2981424033641815    -0.029814206063747406
-0.4599999785423279    -0.4999999701976776    -0.3399999737739563    0.6330097913742065    0.506407618522644    0.5855337977409363
-0.6024999618530273    -0.5399999618530273    -0.6199999451637268    0.7815622687339783    -0.35705894231796265    0.5115362405776978
-0.3174999952316284    -0.5399999618530273    -0.5399999618530273    -0.9359285235404968    -0.23398232460021973    0.2632298767566681
-0.3149999976158142    -0.6199999451637268    -0.4999999701976776    -0.9044491648674011    0.3301957845687866    0.2700783908367157
-0.4699999690055847    -0.6199999451637268    -0.37999996542930603    0.9753300547599792    -0.15916849672794342    -0.1529596894979477
0.8999999761581421    -0.9199999570846558    -1.059999942779541    0.0    0.0    0.0
-0.5399999618530273    -0.4599999785423279    -0.5499999523162842    0.18511977791786194    0.6633465886116028    -0.7250532507896423
-0.4599999785423279    -0.4999999701976776    -0.3399999737739563    0.7532437443733215    0.6025947332382202    -0.26363518834114075
1.1449999809265137    -1.0999999046325684    1.059999942779541    -0.05181806534528732    -0.003840569406747818    -0.9986491203308105
1.1799999475479126    -1.1024999618530273    1.2599999904632568    -0.10207813233137131    0.013092786073684692    -0.9946901798248291
1.2599999904632568    -1.159999966621399    1.2599999904632568    -0.4894331395626068    0.5447579622268677    -0.6809507012367249
1.2299998998641968    -1.1799999475479126    1.0999999046325684    -0.8870187401771545    0.32179656624794006    -0.33112633228302
1.2599999904632568    -1.1799999475479126    1.2349998950958252    -0.7820164561271667    0.23166713118553162    -0.5786024332046509
1.1649999618530273    -1.21999990940094    1.0199999809265137    -0.9788864850997925    0.136479452252388    0.1521666944026947
1.2599999904632568    -1.21999990940094    1.2599999904632568    -0.9471494555473328    0.23277458548545837    0.2207348793745041
1.1424999237060547    -1.2599999904632568    0.9799999594688416    -0.9127260446548462    0.12415772676467896    0.38925066590309143
1.212499976158142    -1.2599999904632568    1.0999999046325684    -0.9104899168014526    0.38316455483436584    0.15554119646549225
1.247499942779541    -1.2599999904632568    1.2599999904632568    -0.9459965825080872    0.22171790897846222    0.2364986687898636
0.019999999552965164    -1.1074999570846558    1.2599999904632568    0.00393835362046957    -0.015282399952411652    -0.9998754262924194
-0.05999999865889549    -1.1074999570846558    1.21999990940094    -0.0013020484475418925    -0.009870171546936035    -0.9999504685401917
-0.6199999451637268    -1.1024999618530273    1.2599999904632568    -0.010524307377636433    -0.0042876810766756535    -0.9999353885650635
-1.2599999904632568    -1.09499990940094    1.2599999904632568    -0.011717930436134338    -0.004031944088637829    -0.9999231100082397
1.1674998998641968    -1.1799999475479126    0.6599999666213989    -0.9676493406295776    0.0750763788819313    -0.24086938798427582
1.0749999284744263    -1.0999999046325684    0.41999998688697815    -0.09572294354438782    0.011405525729060173    -0.9953426122665405
1.1049998998641968    -1.1399999856948853    0.3399999737739563    -0.9630017876625061    0.16050025820732117    -0.21648859977722168
1.0999999046325684    -1.2499998807907104    0.37999996542930603    -0.9869781732559204    0.15764220058918    0.03198537603020668
1.119999885559082    -1.2599999904632568    0.41999998688697815    -0.9649437665939331    0.11551491171121597    0.23566894233226776
1.0099999904632568    -1.0999999046325684    0.019999999552965164    -0.05933627858757973    0.003976750653237104    -0.9982300996780396
1.059999942779541    -1.1399999856948853    0.019999999552965164    -0.9657157063484192    0.1390303671360016    -0.21923471987247467
1.0499999523162842    -1.2599999904632568    0.019999999552965164    -0.9914447069168091    0.13036856055259705    -0.0064379191026091576
0.019999999552965164    -1.087499976158142    0.019999999552965164    -0.002900065155699849    -0.0073807635344564915    -0.9999685883522034
-0.3399999737739563    -1.0899999141693115    0.019999999552965164    0.008820569142699242    -0.01423436775803566    -0.9998598098754883
-1.2599999904632568    -1.0899999141693115    0.019999999552965164    -0.013936680741608143    -0.0025440137833356857    -0.999899685382843
-1.0999999046325684    -1.09499990940094    0.019999999552965164    -0.0021928760688751936    -0.00948100071400404    -0.9999526143074036
1.0199999809265137    -1.2524999380111694    -0.17999999225139618    -0.9759353399276733    0.14362354576587677    0.16408050060272217
1.0374999046325684    -1.2599999904632568    -0.09999999403953552    -0.982452392578125    0.15123391151428223    -0.10915864259004593
-0.6199999451637268    -1.09499990940094    -0.019999999552965164    0.002792170038446784    -0.011825661174952984    -0.9999262094497681
0.8999999761581421    -1.0999999046325684    -0.6199999451637268    -0.11110390722751617    0.0044996412470936775    -0.9937986135482788
0.019999999552965164    -1.087499976158142    -0.6199999451637268    -0.004713332746177912    -0.008517752401530743    -0.9999525547027588
-1.2599999904632568    -1.084999918937683    -0.6199999451637268    -0.006885638926178217    -0.01194095890969038    -0.9999050498008728
0.7799999713897705    -1.0824999809265137    -1.21999990940094    -0.07301215082406998    0.06150767207145691    -0.9954325556755066
0.872499942779541    -1.1399999856948853    -1.2599999904632568    -0.5191726684570312    0.36858853697776794    -0.7711045742034912
0.8999999761581421    -1.1674998998641968    -1.1399999856948853    -0.9633392691612244    0.13319209218025208    -0.23288901150226593
0.8899999260902405    -1.2599999904632568    -1.2599999904632568    -0.9978148341178894    0.048908479511737823    0.04442354291677475
0.8749999403953552    -1.2599999904632568    -1.0999999046325684    -0.9618736505508423    0.11660601198673248    0.2473907321691513
0.019999999552965164    -1.0749999284744263    -1.2599999904632568    -0.023689154535531998    0.4244910776615143    -0.9051221609115601
0.019999999552965164    -1.0749999284744263    -1.21999990940094    -0.0076024215668439865    -0.0137478057295084    -0.9998765587806702
-0.29999998211860657    -1.0824999809265137    -0.9799999594688416    0.004999862518161535    -0.00531235383823514    -0.9999733567237854
-0.6599999666213989    -1.087499976158142    -1.2599999904632568    0.004528522957116365    0.013585653156042099    -0.9998974800109863
-1.2599999904632568    -1.0774999856948853    -1.2599999904632568    -0.008365597575902939    -0.0039365761913359165    -0.9999572038650513
-0.9799999594688416    -1.0799999237060547    -1.21999990940094    -0.0005749354022555053    -0.006693285424262285    -0.9999775290489197
0.7249999642372131    -0.8199999332427979    -1.21999990940094    -0.7362645268440247    -0.5521986484527588    0.3911409080028534
0.699999988079071    -0.8199999332427979    -1.2549998760223389    -0.8030737042427063    0.5736240744590759    -0.1613323837518692
0.6599999666213989    -0.85999995470047    -1.2299998998641968    -0.3822842538356781    -0.9066857695579529    0.17826804518699646
0.7124999761581421    -0.8999999761581421    -1.2599999904632568    -0.5811716318130493    -0.6833480000495911    0.4418991208076477
0.5799999833106995    -0.8999999761581421    -1.2174999713897705    0.7590973377227783    0.20585641264915466    0.6175713539123535
0.5799999833106995    -0.9274999499320984    -1.1799999475479126    -0.3906351923942566    -0.720182478427887    0.5733596682548523
0.37999996542930603    -0.9399999380111694    -1.2349998950958252    0.18352995812892914    0.09063245356082916    0.9788271188735962
0.41999998688697815    -0.9399999380111694    -1.247499942779541    -0.3821898102760315    0.12416350841522217    0.9157043099403381
0.6199999451637268    -0.9399999380111694    -1.244999885559082    -0.10135520249605179    -0.3159896433353424    0.9433332085609436
0.37999996542930603    -0.9549999237060547    -1.2599999904632568    0.009053939022123814    0.028972435742616653    0.9995392560958862
0.6199999451637268    -0.9499999284744263    -1.2599999904632568    -0.17517079412937164    -0.5461204648017883    0.8191871643066406
0.41999998688697815    -0.9599999785423279    -1.0999999046325684    -0.026038017123937607    0.10712770372629166    0.9939042925834656
0.05999999865889549    -0.872499942779541    -1.2599999904632568    -0.32654914259910583    -0.1837873011827469    -0.9271396994590759
0.019999999552965164    -0.8999999761581421    -1.2424999475479126    -0.022333573549985886    0.3070888817310333    -0.9514187574386597
0.019999999552965164    -0.9249999523162842    -1.2599999904632568    0.5770938396453857    0.8143126368522644    -0.062108948826789856
0.05499999597668648    -0.8999999761581421    -1.1799999475479126    -0.7253561615943909    -0.6503607034683228    -0.2255866974592209
0.09999999403953552    -0.9399999380111694    -1.2499998807907104    -0.6931552886962891    -0.6376432776451111    0.3360753655433655
0.019999999552965164    -0.9549999237060547    -1.2599999904632568    -0.08917022496461868    -0.48406827449798584    0.8704748749732971
0.29999998211860657    -0.9399999380111694    -1.2599999904632568    -0.05029033496975899    0.160928413271904    0.9856840372085571
-0.05999999865889549    -0.85999995470047    -1.2299998998641968    0.02133275382220745    0.8171908855438232    -0.5759721994400024
0.0    -0.9399999380111694    -1.2599999904632568    0.9922779202461243    0.12403447180986404    9.626351982205961e-08
-0.004999999888241291    -0.9399999380111694    -1.21999990940094    0.47949591279029846    0.15860234200954437    0.8630926012992859
-0.6199999451637268    -1.059999942779541    1.0399999618530273    -0.15944688022136688    -0.9871488809585571    0.010663683526217937
-0.6199999451637268    -1.1399999856948853    1.0199999809265137    -0.23963060975074768    -0.9645316004753113    0.11070695519447327
-0.6199999451637268    -1.1799999475479126    1.0625    -0.25240758061408997    -0.9675638675689697    0.010516973212361336
-0.9399999380111694    -0.9799999594688416    1.09499990940094    -0.13084059953689575    -0.9912181496620178    -0.019163234159350395
-0.8999999761581421    -1.0999999046325684    1.0699999332427979    -0.09853550791740417    -0.9943960309028625    0.038306791335344315
-0.85999995470047    -1.1399999856948853    1.1024999618530273    -0.5087987184524536    -0.8479984402656555    -0.1483996957540512
-0.6599999666213989    -1.1799999475479126    1.0299999713897705    -0.05101577192544937    -0.9885436296463013    -0.1420527547597885
-0.85999995470047    -1.1799999475479126    1.059999942779541    -0.312320351600647    -0.9344459176063538    0.17107529938220978
-0.9399999380111694    -1.21999990940094    1.1149998903274536    0.04884960874915123    -0.9769911170005798    -0.207610085606575
-0.9399999380111694    -1.2374999523162842    1.059999942779541    -0.3883826732635498    -0.7906372547149658    0.4733410179615021
-0.6249999403953552    -1.2599999904632568    1.0199999809265137    -0.3705798387527466    -0.9280610680580139    0.0370580293238163
-0.699999988079071    -1.2599999904632568    1.0649999380111694    -0.11184760928153992    -0.9297341108322144    -0.3508342206478119
-0.8999999761581421    -1.2599999904632568    1.0999999046325684    -0.8341572284698486    -0.3293982148170471    0.442355751991272
-1.087499976158142    -0.9799999594688416    1.0999999046325684    -0.16128304600715637    -0.9257322549819946    -0.3420636057853699
-1.21999990940094    -0.9799999594688416    1.1674998998641968    -0.6007400155067444    -0.78642338514328    -0.14369969069957733
-1.024999976158142    -1.0199999809265137    1.1399999856948853    -0.7234289050102234    -0.3895377814769745    -0.5700095295906067
-1.2599999904632568    -1.0199999809265137    1.1799999475479126    -0.21547463536262512    -0.975969135761261    -0.03247955068945885
-1.0199999809265137    -1.059999942779541    1.0999999046325684    -0.4113781452178955    -0.9082390666007996    0.07661435008049011
-1.059999942779541    -1.059999942779541    1.149999976158142    -0.23054464161396027    -0.9729408025741577    0.015334338881075382
-1.0774999856948853    -1.0999999046325684    1.0999999046325684    -0.2648363411426544    -0.9416390657424927    0.20779193937778473
-1.1799999475479126    -1.0999999046325684    1.1099998950958252    -0.5903531908988953    -0.6725253462791443    -0.44631028175354004
-1.1399999856948853    -1.0999999046325684    1.159999966621399    0.27793988585472107    -0.9593262672424316    -0.049423038959503174
-1.0199999809265137    -1.1124999523162842    1.1399999856948853    -0.9004873633384705    0.16041065752506256    0.404216468334198
-1.0999999046325684    -1.1399999856948853    1.1024999618530273    -0.7441436052322388    0.3607417047023773    0.562241792678833
-1.2524999380111694    -1.1399999856948853    1.1799999475479126    -0.10769908875226974    -0.9941490292549133    0.008284603245556355
-1.1799999475479126    -1.1399999856948853    1.1649999618530273    -0.31766584515571594    -0.947841465473175    -0.026171334087848663
-1.1799999475479126    -1.1799999475479126    1.0999999046325684    -0.7029015421867371    -0.22492223978042603    0.6747882962226868
-1.1399999856948853    -1.1799999475479126    1.1074999570846558    -0.24229541420936584    0.9548571705818176    0.1718742400407791
-1.1399999856948853    -1.182499885559082    1.0999999046325684    -0.2965700328350067    -0.9490243196487427    -0.10676584392786026
-1.0999999046325684    -1.21999990940094    1.087499976158142    -0.8499378561973572    -0.5049471855163574    0.1504460871219635
-1.059999942779541    -1.21999990940094    1.084999918937683    -0.1350945383310318    -0.9903905987739563    0.0295938141644001
-0.9799999594688416    -1.21999990940094    1.0749999284744263    0.07799023389816284    -0.994966447353363    -0.06292401999235153
